# .PCD v0.7 - Point Cloud Data file format
VERSION 0.7
FIELDS x y z
SIZE 4 4 4
TYPE F F F
COUNT 1 1 1
WIDTH 1714
HEIGHT 1
VIEWPOINT 0 0 0 1 0 0 0
POINTS 1714
DATA ascii
0.0524777 -0.412539 0.89697
0.0564054 -0.412579 0.89697
0.0485511 -0.412502 0.89697
0.0485869 -0.416728 0.89697
0.0523388 -0.415357 0.893939
0.056256 -0.415397 0.893939
0.0523777 -0.419578 0.893939
0.0562976 -0.419618 0.893939
0.0484589 -0.41954 0.893939
0.0481668 -0.420897 0.887879
0.0520618 -0.420935 0.887879
0.0445749 -0.423734 0.893939
0.044458 -0.426523 0.890909
0.0482036 -0.425108 0.887879
0.0519236 -0.423695 0.884848
0.0480763 -0.427863 0.884848
0.0517857 -0.426436 0.881818
0.044644 -0.432222 0.893939
0.0443763 -0.433522 0.887879
0.048114 -0.432079 0.884848
0.051648 -0.429159 0.878788
0.0479873 -0.434811 0.881818
0.0516889 -0.433357 0.878788
0.0442601 -0.436268 0.884848
0.048191 -0.440542 0.884848
0.0553647 -0.431905 0.875758
0.0553212 -0.427721 0.875758
0.0589688 -0.426285 0.872727
0.0556608 -0.426478 0.881818
0.0590151 -0.430455 0.872727
0.0593323 -0.425057 0.878788
0.0631964 -0.425104 0.878788
0.0596958 -0.42378 0.884848
0.062809 -0.426333 0.872727
0.0631482 -0.420924 0.878788
0.0558092 -0.423736 0.884848
0.0559578 -0.420976 0.887879
0.059855 -0.421019 0.887879
0.0635358 -0.419628 0.884848
0.0602186 -0.419662 0.893939
0.0641408 -0.419708 0.893939
0.0680642 -0.419756 0.893939
0.0640936 -0.415485 0.893939
0.067422 -0.419677 0.884848
0.0680143 -0.415533 0.893939
0.0601742 -0.41544 0.893939
0.0605381 -0.414015 0.9
0.0644813 -0.41406 0.9
0.0686562 -0.415502 0.90303
0.0606982 -0.411163 0.90303
0.0733463 -0.419737 0.912121
0.0770898 -0.418396 0.909091
0.0799404 -0.408653 0.89697
0.0841581 -0.410091 0.9
0.0794568 -0.410084 0.890909
0.0833672 -0.410142 0.890909
0.0872791 -0.410203 0.890909
0.0828596 -0.411526 0.884848
0.0867477 -0.411587 0.884848
0.0787027 -0.410058 0.881818
0.0750882 -0.411411 0.884848
0.0790308 -0.415649 0.884848
0.08292 -0.415709 0.884848
0.0754004 -0.417016 0.887879
0.0717449 -0.418385 0.890909
0.0754562 -0.421221 0.887879
0.0790892 -0.419841 0.884848
0.0717981 -0.422604 0.890909
0.0716924 -0.414175 0.890909
0.0829812 -0.419901 0.884848
0.0865773 -0.418526 0.881818
0.0868109 -0.415771 0.884848
0.0907034 -0.415836 0.884848
0.0904593 -0.418592 0.881818
0.0909479 -0.413061 0.887879
0.0948527 -0.413128 0.887879
0.091503 -0.411662 0.893939
0.0949217 -0.417328 0.887879
0.0957552 -0.413124 0.89697
0.0996991 -0.413194 0.89697
0.0990965 -0.414608 0.890909
0.0999651 -0.410351 0.9
0.103572 -0.40904 0.89697
0.100568 -0.408855 0.906061
0.0963339 -0.411663 0.90303
0.103295 -0.41187 0.893939
0.103849 -0.406191 0.9
0.107805 -0.406265 0.9
0.104127 -0.403323 0.90303
0.107517 -0.409115 0.89697
0.108093 -0.403396 0.90303
0.100499 -0.404606 0.906061
0.0965896 -0.408787 0.906061
0.104405 -0.400435 0.906061
0.108382 -0.400507 0.906061
0.108671 -0.397599 0.909091
0.112661 -0.397673 0.909091
0.112361 -0.400582 0.906061
0.113336 -0.396056 0.915152
0.117741 -0.397444 0.918182
0.116652 -0.397749 0.909091
0.118052 -0.394467 0.921212
0.109251 -0.391724 0.915152
0.109542 -0.388757 0.918182
0.109472 -0.384501 0.918182
0.114762 -0.396986 0.927273
0.11914 -0.394037 0.930303
0.123219 -0.394115 0.930303
0.127715 -0.39548 0.933333
0.126138 -0.394626 0.921212
0.131041 -0.397306 0.927273
0.121692 -0.393247 0.918182
0.125805 -0.397604 0.918182
0.13027 -0.399001 0.921212
0.12137 -0.396211 0.915152
0.120646 -0.397829 0.909091
0.125058 -0.399237 0.912121
0.12907 -0.399322 0.912121
0.124726 -0.402162 0.909091
0.128728 -0.402248 0.909091
0.120325 -0.400739 0.906061
0.116342 -0.400659 0.906061
0.120004 -0.40363 0.90303
0.123979 -0.403714 0.90303
0.116032 -0.403549 0.90303
0.112061 -0.403471 0.90303
0.115722 -0.40642 0.9
0.119684 -0.406502 0.9
0.111762 -0.406341 0.9
0.111087 -0.407809 0.893939
0.115413 -0.409271 0.89697
0.119364 -0.409354 0.89697
0.115104 -0.412103 0.893939
0.119045 -0.412187 0.893939
0.111166 -0.412023 0.893939
0.107229 -0.411945 0.893939
0.110868 -0.414835 0.890909
0.114406 -0.413505 0.887879
0.106942 -0.414757 0.890909
0.103018 -0.414681 0.890909
0.106656 -0.417549 0.887879
0.110571 -0.417628 0.887879
0.102743 -0.417472 0.887879
0.0988311 -0.417399 0.887879
0.102116 -0.418805 0.881818
0.10637 -0.420322 0.884848
0.0982287 -0.418731 0.881818
0.0943431 -0.41866 0.881818
0.09344 -0.418491 0.872727
0.0966128 -0.415656 0.866667
0.0895935 -0.418423 0.872727
0.0938352 -0.424116 0.875758
0.0899725 -0.424046 0.875758
0.0858135 -0.422512 0.872727
0.0860464 -0.41981 0.875758
0.0824744 -0.421199 0.878788
0.0819675 -0.422448 0.872727
0.0781232 -0.422387 0.872727
0.0786062 -0.421138 0.878788
0.0747396 -0.42108 0.878788
0.0742804 -0.422329 0.872727
0.0706837 -0.42374 0.875758
0.0702485 -0.424955 0.869697
0.0708744 -0.421026 0.878788
0.0670106 -0.420974 0.878788
0.0668304 -0.423688 0.875758
0.0664191 -0.424903 0.869697
0.0664709 -0.429059 0.869697
0.0700583 -0.427618 0.866667
0.0626399 -0.429009 0.869697
0.0624711 -0.431665 0.866667
0.0662916 -0.431717 0.866667
0.0586518 -0.431617 0.866667
0.0548337 -0.431572 0.866667
0.0582885 -0.432731 0.860606
0.0623026 -0.434304 0.863636
0.0544942 -0.432686 0.860606
0.051058 -0.435689 0.866667
0.0541546 -0.433751 0.854545
0.0579251 -0.433797 0.854545
0.0507425 -0.436784 0.860606
0.0507846 -0.440936 0.860606
0.0541993 -0.437875 0.854545
0.0577672 -0.436368 0.851515
0.0615285 -0.436418 0.851515
0.0616968 -0.433846 0.854545
0.0657019 -0.435437 0.857576
0.065291 -0.43647 0.851515
0.0661127 -0.434355 0.863636
0.0690549 -0.436525 0.851515
0.0513734 -0.434547 0.872727
0.0738212 -0.42353 0.866667
0.0773687 -0.422108 0.863636
0.080891 -0.420687 0.860606
0.0843882 -0.41927 0.857576
0.0841551 -0.421876 0.854545
0.0882401 -0.42344 0.857576
0.0839224 -0.424464 0.851515
0.0879971 -0.426042 0.854545
0.0881718 -0.419336 0.857576
0.0913074 -0.416441 0.851515
0.091378 -0.420517 0.851515
0.0948027 -0.419093 0.848485
0.0914495 -0.424602 0.851515
0.0948769 -0.423164 0.848485
0.0950678 -0.416513 0.851515
0.0984785 -0.415105 0.848485
0.0985546 -0.419168 0.848485
0.0994577 -0.415456 0.857576
0.103611 -0.417001 0.860606
0.0963476 -0.418317 0.863636
0.102594 -0.416665 0.851515
0.106739 -0.418228 0.854545
0.102674 -0.420743 0.851515
0.106443 -0.420824 0.851515
0.110607 -0.422406 0.854545
0.106526 -0.424914 0.851515
0.110301 -0.424999 0.851515
0.102754 -0.424831 0.851515
0.110521 -0.418311 0.854545
0.114711 -0.419881 0.857576
0.111612 -0.418633 0.863636
0.114799 -0.423992 0.857576
0.107414 -0.417081 0.860606
0.108089 -0.415886 0.866667
0.11231 -0.417423 0.869697
0.104262 -0.415806 0.866667
0.100436 -0.41573 0.866667
0.11656 -0.418963 0.872727
0.115838 -0.420188 0.866667
0.120094 -0.421747 0.869697
0.119348 -0.422939 0.863636
0.123177 -0.423032 0.863636
0.118602 -0.424083 0.857576
0.123272 -0.427174 0.863636
0.123947 -0.421839 0.869697
0.128247 -0.423405 0.872727
0.124716 -0.420598 0.875758
0.127454 -0.424612 0.866667
0.128595 -0.420693 0.875758
0.120421 -0.419052 0.872727
0.121585 -0.419219 0.881818
0.125486 -0.41931 0.881818
0.117687 -0.41913 0.881818
0.118409 -0.417795 0.887879
0.113791 -0.419045 0.881818
0.122331 -0.417883 0.887879
0.114098 -0.416284 0.884848
0.110275 -0.420402 0.884848
0.118727 -0.415 0.890909
0.12266 -0.415088 0.890909
0.122989 -0.412273 0.893939
0.127364 -0.41376 0.89697
0.123318 -0.409439 0.89697
0.126595 -0.415177 0.890909
0.127704 -0.410911 0.9
0.131233 -0.409618 0.89697
0.128045 -0.408043 0.90303
0.130882 -0.412454 0.893939
0.132027 -0.408133 0.90303
0.123648 -0.406586 0.9
0.136013 -0.408226 0.90303
0.132379 -0.405244 0.906061
0.135651 -0.411096 0.9
0.136375 -0.405337 0.906061
0.128386 -0.405155 0.906061
0.132731 -0.402337 0.909091
0.137193 -0.403769 0.912121
0.133526 -0.400736 0.915152
0.137101 -0.3995 0.912121
0.141121 -0.399593 0.912121
0.141216 -0.403864 0.912121
0.145241 -0.403961 0.912121
0.140373 -0.405432 0.906061
0.144374 -0.405529 0.906061
0.145143 -0.399689 0.912121
0.149168 -0.399787 0.912121
0.148772 -0.402718 0.909091
0.15279 -0.402821 0.909091
0.148378 -0.40563 0.906061
0.152384 -0.405733 0.906061
0.153705 -0.401217 0.915152
0.157749 -0.401322 0.915152
0.15681 -0.402926 0.909091
0.151049 -0.400779 0.924242
0.155637 -0.402195 0.927273
0.146974 -0.40068 0.924242
0.142901 -0.400585 0.924242
0.139286 -0.401805 0.927273
0.134763 -0.400401 0.924242
0.159732 -0.402299 0.927273
0.156551 -0.400467 0.933333
0.160148 -0.39927 0.930303
0.152435 -0.400366 0.933333
0.153325 -0.398592 0.939394
0.148804 -0.401568 0.936364
0.157465 -0.398692 0.939394
0.149188 -0.398495 0.939394
0.149093 -0.394131 0.939394
0.145054 -0.3984 0.939394
0.144212 -0.400173 0.933333
0.153227 -0.394227 0.939394
0.144961 -0.394037 0.939394
0.145337 -0.39094 0.942424
0.140833 -0.393946 0.939394
0.140923 -0.398308 0.939394
0.149479 -0.391033 0.942424
0.141198 -0.39085 0.942424
0.14111 -0.386492 0.942424
0.137061 -0.390763 0.942424
0.136266 -0.392588 0.936364
0.145714 -0.387823 0.945455
0.137416 -0.387648 0.945455
0.137772 -0.384513 0.948485
0.133271 -0.387564 0.945455
0.132927 -0.390678 0.942424
0.14193 -0.384599 0.948485
0.133616 -0.38443 0.948485
0.128715 -0.386241 0.942424
0.137688 -0.380145 0.948485
0.141844 -0.380229 0.948485
0.146002 -0.380316 0.948485
0.146091 -0.384687 0.948485
0.150254 -0.384777 0.948485
0.149867 -0.387915 0.945455
0.150163 -0.380405 0.948485
0.15482 -0.381713 0.951515
0.150073 -0.376041 0.948485
0.154421 -0.384871 0.948485
0.154727 -0.377333 0.951515
0.15941 -0.378629 0.954545
0.154635 -0.372962 0.951515
0.159 -0.381807 0.951515
0.159316 -0.374242 0.954545
0.164026 -0.375525 0.957576
0.158717 -0.368689 0.951515
0.164123 -0.379927 0.957576
0.162893 -0.368782 0.951515
0.167603 -0.370053 0.954545
0.169298 -0.378001 0.963636
0.174081 -0.379291 0.966667
0.168866 -0.381229 0.960606
0.173093 -0.381331 0.960606
0.177322 -0.381436 0.960606
0.172104 -0.383324 0.954545
0.17631 -0.38343 0.954545
0.167902 -0.383221 0.954545
0.177217 -0.377016 0.960606
0.180983 -0.38034 0.957576
0.171798 -0.370152 0.954545
0.174319 -0.366727 0.945455
0.17973 -0.373553 0.951515
0.183447 -0.376838 0.948485
0.182167 -0.370091 0.942424
0.182972 -0.379995 0.945455
0.18191 -0.381901 0.939394
0.179482 -0.385485 0.948485
0.175297 -0.385376 0.948485
0.176724 -0.383647 0.933333
0.180848 -0.383759 0.933333
0.173724 -0.386029 0.939394
0.16958 -0.385922 0.939394
0.173273 -0.389125 0.936364
0.176835 -0.387976 0.933333
0.169686 -0.390276 0.939394
0.166077 -0.391429 0.942424
0.168699 -0.392092 0.933333
0.172821 -0.392201 0.933333
0.165113 -0.393259 0.936364
0.165973 -0.387063 0.942424
0.167471 -0.386397 0.951515
0.162342 -0.388205 0.945455
0.161923 -0.391326 0.942424
0.171116 -0.38527 0.948485
0.157772 -0.391225 0.942424
0.161505 -0.394427 0.939394
0.157364 -0.394326 0.939394
0.158181 -0.388106 0.945455
0.15859 -0.384967 0.948485
0.154022 -0.388009 0.945455
0.153624 -0.391128 0.942424
0.163282 -0.386295 0.951515
0.163702 -0.383121 0.954545
0.161087 -0.397509 0.936364
0.164685 -0.396327 0.933333
0.164257 -0.399376 0.930303
0.16782 -0.398184 0.927273
0.16383 -0.402406 0.927273
0.168807 -0.396435 0.933333
0.172371 -0.395258 0.930303
0.17136 -0.396994 0.924242
0.175451 -0.397107 0.924242
0.170911 -0.399997 0.921212
0.174991 -0.400112 0.921212
0.167382 -0.401201 0.924242
0.175912 -0.394083 0.927273
0.180017 -0.394199 0.927273
0.176373 -0.391039 0.930303
0.179546 -0.397224 0.924242
0.179901 -0.389879 0.927273
0.184007 -0.389996 0.927273
0.180374 -0.386829 0.930303
0.184126 -0.394317 0.927273
0.184491 -0.386944 0.930303
0.187997 -0.385802 0.927273
0.184375 -0.382627 0.930303
0.187502 -0.38884 0.924242
0.187879 -0.381496 0.927273
0.191359 -0.380368 0.924242
0.187149 -0.375967 0.924242
0.19148 -0.384661 0.924242
0.19124 -0.376084 0.924242
0.184861 -0.37955 0.933333
0.183548 -0.372798 0.927273
0.187034 -0.371692 0.924242
0.191123 -0.371807 0.924242
0.186921 -0.367426 0.924242
0.191007 -0.367539 0.924242
0.185236 -0.372132 0.936364
0.184526 -0.366629 0.933333
0.186809 -0.363167 0.924242
0.190893 -0.363279 0.924242
0.186087 -0.35774 0.921212
0.190155 -0.35785 0.921212
0.182622 -0.358808 0.924242
0.181917 -0.353404 0.921212
0.178547 -0.358703 0.924242
0.185979 -0.35351 0.921212
0.178444 -0.354463 0.924242
0.177757 -0.349081 0.921212
0.174947 -0.355523 0.927273
0.181813 -0.349184 0.921212
0.173704 -0.348982 0.921212
0.173606 -0.344772 0.921212
0.170212 -0.350032 0.924242
0.170868 -0.355423 0.927273
0.177657 -0.34487 0.921212
0.170117 -0.345809 0.924242
0.169464 -0.340474 0.921212
0.166059 -0.345715 0.924242
0.166697 -0.351084 0.927273
0.172939 -0.339448 0.918182
0.176973 -0.339545 0.918182
0.172844 -0.335266 0.918182
0.176292 -0.334255 0.915152
0.169372 -0.336279 0.921212
0.168723 -0.330999 0.918182
0.17218 -0.329999 0.915152
0.176197 -0.330092 0.915152
0.172088 -0.325844 0.915152
0.176103 -0.325937 0.915152
0.168633 -0.326833 0.918182
0.168544 -0.322672 0.918182
0.171997 -0.321696 0.915152
0.175427 -0.320722 0.912121
0.171908 -0.317555 0.915152
0.175336 -0.316593 0.912121
0.167901 -0.317468 0.915152
0.167815 -0.313334 0.915152
0.171251 -0.312383 0.912121
0.175246 -0.312471 0.912121
0.171164 -0.308268 0.912121
0.174575 -0.307331 0.909091
0.16773 -0.309207 0.915152
0.167091 -0.304076 0.912121
0.170511 -0.303149 0.909091
0.174488 -0.303235 0.909091
0.170427 -0.299061 0.909091
0.173821 -0.298148 0.906061
0.177192 -0.297236 0.90303
0.173737 -0.294078 0.906061
0.177874 -0.302311 0.906061
0.1777 -0.294162 0.906061
0.181059 -0.293265 0.90303
0.177021 -0.289127 0.90303
0.181147 -0.297324 0.90303
0.180365 -0.288241 0.9
0.184306 -0.288328 0.9
0.18028 -0.284208 0.9
0.184395 -0.292369 0.9
0.184219 -0.284293 0.9
0.176937 -0.285081 0.90303
0.176262 -0.280097 0.9
0.179589 -0.279236 0.89697
0.183513 -0.27932 0.89697
0.179507 -0.275227 0.89697
0.183429 -0.27531 0.89697
0.176181 -0.276076 0.9
0.176101 -0.27206 0.9
0.179426 -0.271224 0.89697
0.183346 -0.271305 0.89697
0.179346 -0.267226 0.89697
0.183264 -0.267306 0.89697
0.186554 -0.266485 0.893939
0.182565 -0.262422 0.893939
0.186637 -0.270472 0.893939
0.186472 -0.262503 0.893939
0.178662 -0.262344 0.893939
0.178584 -0.25837 0.893939
0.182486 -0.258447 0.893939
0.186391 -0.258526 0.893939
0.182409 -0.254477 0.893939
0.18568 -0.253692 0.890909
0.178508 -0.254401 0.893939
0.178434 -0.250437 0.893939
0.182332 -0.250512 0.893939
0.185602 -0.249739 0.890909
0.182257 -0.246552 0.893939
0.185526 -0.245791 0.890909
0.188771 -0.245032 0.887879
0.18545 -0.241848 0.890909
0.189494 -0.249817 0.890909
0.188695 -0.241101 0.887879
0.192573 -0.241178 0.887879
0.188619 -0.237175 0.887879
0.192652 -0.24511 0.887879
0.191839 -0.236441 0.884848
0.195706 -0.236518 0.884848
0.191763 -0.232531 0.884848
0.195784 -0.240433 0.884848
0.195628 -0.232607 0.884848
0.199497 -0.232685 0.884848
0.195552 -0.228701 0.884848
0.199576 -0.236597 0.884848
0.198737 -0.227994 0.881818
0.202594 -0.228071 0.881818
0.198661 -0.224104 0.881818
0.202673 -0.231967 0.881818
0.202517 -0.224181 0.881818
0.194808 -0.22403 0.881818
0.194735 -0.220146 0.881818
0.198586 -0.220219 0.881818
0.20244 -0.220294 0.881818
0.198512 -0.216338 0.881818
0.202365 -0.216412 0.881818
0.194663 -0.216266 0.881818
0.194592 -0.212391 0.881818
0.19844 -0.212462 0.881818
0.201596 -0.211804 0.878788
0.197687 -0.207873 0.878788
0.201524 -0.207944 0.878788
0.194522 -0.20852 0.881818
0.194454 -0.204653 0.881818
0.197617 -0.204018 0.878788
0.201453 -0.204087 0.878788
0.197549 -0.200167 0.878788
0.201383 -0.200235 0.878788
0.193719 -0.2001 0.878788
0.193653 -0.196254 0.878788
0.197482 -0.19632 0.878788
0.20062 -0.19571 0.875758
0.196735 -0.191813 0.875758
0.200553 -0.191879 0.875758
0.193588 -0.192412 0.878788
0.192858 -0.187923 0.875758
0.196671 -0.187987 0.875758
0.200488 -0.188051 0.875758
0.196608 -0.184164 0.875758
0.199729 -0.18359 0.872727
0.192796 -0.184102 0.875758
0.192735 -0.180284 0.875758
0.196546 -0.180345 0.875758
0.199666 -0.179783 0.872727
0.195805 -0.175919 0.872727
0.199604 -0.17598 0.872727
0.192008 -0.17586 0.872727
0.19195 -0.172062 0.872727
0.195745 -0.172121 0.872727
0.199544 -0.17218 0.872727
0.195687 -0.168325 0.872727
0.198792 -0.167799 0.869697
0.202579 -0.167858 0.869697
0.198733 -0.164019 0.869697
0.20264 -0.171643 0.869697
0.20252 -0.164077 0.869697
0.205591 -0.163564 0.866667
0.201756 -0.159741 0.866667
0.20637 -0.167919 0.869697
0.205532 -0.159798 0.866667
0.209311 -0.159857 0.866667
0.205474 -0.156036 0.866667
0.209371 -0.163625 0.866667
0.20852 -0.155548 0.863636
0.212289 -0.155606 0.863636
0.208463 -0.1518 0.863636
0.213094 -0.159918 0.866667
0.21223 -0.151857 0.863636
0.216001 -0.151916 0.863636
0.212173 -0.148111 0.863636
0.216061 -0.155666 0.863636
0.215185 -0.147649 0.860606
0.218945 -0.147707 0.860606
0.215128 -0.143917 0.860606
0.219776 -0.151975 0.863636
0.218887 -0.143974 0.860606
0.22265 -0.144032 0.860606
0.21883 -0.140245 0.860606
0.222709 -0.147766 0.860606
0.222593 -0.140301 0.860606
0.225561 -0.139865 0.857576
0.221752 -0.136093 0.857576
0.226417 -0.144091 0.860606
0.225504 -0.136149 0.857576
0.22926 -0.136206 0.857576
0.225448 -0.132435 0.857576
0.229318 -0.139923 0.857576
0.229203 -0.132491 0.857576
0.232961 -0.132548 0.857576
0.229147 -0.128779 0.857576
0.233019 -0.136264 0.857576
0.232905 -0.128834 0.857576
0.236667 -0.128891 0.857576
0.23285 -0.125124 0.857576
0.236724 -0.132606 0.857576
0.23661 -0.125179 0.857576
0.240375 -0.125235 0.857576
0.236555 -0.121469 0.857576
0.240432 -0.128948 0.857576
0.240319 -0.121524 0.857576
0.244088 -0.121579 0.857576
0.239416 -0.117399 0.854545
0.244144 -0.125292 0.857576
0.24317 -0.117453 0.854545
0.246928 -0.117508 0.854545
0.243116 -0.113759 0.854545
0.24786 -0.121636 0.857576
0.246874 -0.113812 0.854545
0.239363 -0.113706 0.854545
0.238463 -0.109626 0.851515
0.242202 -0.109677 0.851515
0.245945 -0.109729 0.851515
0.242151 -0.106 0.851515
0.245894 -0.106051 0.851515
0.24964 -0.106102 0.851515
0.245844 -0.102375 0.851515
0.250581 -0.110172 0.854545
0.249589 -0.102425 0.851515
0.25334 -0.102476 0.851515
0.24954 -0.0987503 0.851515
0.253391 -0.106154 0.851515
0.253289 -0.0987996 0.851515
0.245795 -0.0987018 0.851515
0.244873 -0.0946924 0.848485
0.249492 -0.0950776 0.851515
0.25324 -0.0951254 0.851515
0.248557 -0.0910817 0.848485
0.253193 -0.0914534 0.851515
0.244827 -0.0910362 0.848485
0.244783 -0.0873821 0.848485
0.248512 -0.0874261 0.848485
0.252246 -0.0874709 0.848485
0.248468 -0.0837725 0.848485
0.252201 -0.0838158 0.848485
0.24474 -0.0837298 0.848485
0.244698 -0.0800795 0.848485
0.248426 -0.0801207 0.848485
0.252158 -0.0801627 0.848485
0.248385 -0.0764708 0.848485
0.252117 -0.0765113 0.848485
0.243784 -0.076158 0.845455
0.243745 -0.0725242 0.845455
0.247459 -0.0725625 0.845455
0.252077 -0.0728617 0.848485
0.247421 -0.068929 0.845455
0.251138 -0.0689666 0.845455
0.243708 -0.0688921 0.845455
0.243672 -0.0652616 0.845455
0.247384 -0.0652972 0.845455
0.251101 -0.0653333 0.845455
0.246463 -0.0614458 0.842424
0.250165 -0.0614805 0.842424
0.242764 -0.0614118 0.842424
0.242731 -0.0577974 0.842424
0.246429 -0.0578301 0.842424
0.250131 -0.0578633 0.842424
0.24551 -0.0540207 0.839394
0.249199 -0.0540524 0.839394
0.241826 -0.0539894 0.839394
0.240923 -0.0502089 0.836364
0.245479 -0.0504207 0.839394
0.249167 -0.050451 0.839394
0.244564 -0.046653 0.836364
0.249137 -0.0468509 0.839394
0.240894 -0.0466246 0.836364
0.240867 -0.0430415 0.836364
0.244536 -0.0430685 0.836364
0.24821 -0.043096 0.836364
0.244509 -0.0394852 0.836364
0.248183 -0.0395113 0.836364
0.240841 -0.0394595 0.836364
0.240816 -0.0358788 0.836364
0.244484 -0.0359031 0.836364
0.248157 -0.0359278 0.836364
0.24446 -0.032322 0.836364
0.248133 -0.0323454 0.836364
0.240792 -0.032299 0.836364
0.239898 -0.0286163 0.833333
0.244438 -0.028742 0.836364
0.24811 -0.028764 0.836364
0.243531 -0.0250717 0.833333
0.248088 -0.0251835 0.836364
0.251764 -0.0252045 0.836364
0.251786 -0.0287863 0.836364
0.255467 -0.028809 0.836364
0.251809 -0.0323691 0.836364
0.255491 -0.0323932 0.836364
0.255445 -0.0252257 0.836364
0.25913 -0.0252473 0.836364
0.259153 -0.028832 0.836364
0.263795 -0.02896 0.839394
0.259176 -0.0324177 0.836364
0.263819 -0.0325601 0.839394
0.26282 -0.0252692 0.836364
0.26748 -0.0253831 0.839394
0.262798 -0.021684 0.836364
0.267503 -0.0289838 0.839394
0.266492 -0.0217047 0.836364
0.27117 -0.0218045 0.839394
0.266472 -0.0181188 0.836364
0.271192 -0.0254058 0.839394
0.27115 -0.0182041 0.839394
0.274866 -0.018224 0.839394
0.271131 -0.0146044 0.839394
0.274887 -0.021826 0.839394
0.274847 -0.0146228 0.839394
0.278569 -0.0146414 0.839394
0.274829 -0.0110223 0.839394
0.278588 -0.0182442 0.839394
0.278551 -0.0110394 0.839394
0.283296 -0.0110967 0.842424
0.278534 -0.00743807 0.839394
0.283314 -0.0147133 0.842424
0.283279 -0.00748071 0.842424
0.287024 -0.00749671 0.842424
0.282245 -0.00385147 0.839394
0.287041 -0.0111143 0.842424
0.287009 -0.00387976 0.842424
0.290759 -0.00389433 0.842424
0.286995 -0.000263357 0.842424
0.290774 -0.00751292 0.842424
0.290745 -0.000276291 0.842424
0.295559 -0.000290427 0.845455
0.290733 0.00334126 0.842424
0.295573 -0.00392315 0.845455
0.294488 0.00332983 0.842424
0.299321 0.0033302 0.845455
0.294477 0.00694862 0.842424
0.299333 -0.000303732 0.845455
0.29931 0.0069637 0.845455
0.304175 0.0069786 0.848485
0.299301 0.0105968 0.845455
0.304186 0.00333035 0.848485
0.304166 0.0106265 0.848485
0.309064 0.010656 0.851515
0.304159 0.0142741 0.848485
0.309074 0.00699332 0.851515
0.309057 0.0143184 0.851515
0.313988 0.0143626 0.854545
0.309051 0.0179805 0.851515
0.313996 0.0106854 0.854545
0.313982 0.0180395 0.854545
0.313978 0.0217163 0.854545
0.314005 0.00700785 0.854545
0.312903 0.00331817 0.851515
0.309085 0.00333027 0.851515
0.309098 -0.000333201 0.851515
0.312916 -0.000347091 0.851515
0.304199 -0.000318337 0.848485
0.304214 -0.00396751 0.848485
0.308013 -0.00398294 0.848485
0.299347 -0.00393815 0.845455
0.299363 -0.00757312 0.845455
0.30423 -0.00761723 0.848485
0.295589 -0.00755643 0.845455
0.295606 -0.0111903 0.845455
0.299381 -0.0112087 0.845455
0.290791 -0.0111321 0.842424
0.29081 -0.014752 0.842424
0.295626 -0.0148249 0.845455
0.28706 -0.0147325 0.842424
0.28708 -0.0183514 0.842424
0.290831 -0.0183726 0.842424
0.283334 -0.0183306 0.842424
0.283356 -0.0219487 0.842424
0.287102 -0.0219712 0.842424
0.279615 -0.0219266 0.842424
0.279638 -0.025544 0.842424
0.283379 -0.0255677 0.842424
0.27491 -0.0254288 0.839394
0.274934 -0.0290325 0.839394
0.279662 -0.0291623 0.842424
0.271216 -0.029008 0.839394
0.271241 -0.0326111 0.839394
0.275952 -0.032755 0.842424
0.267528 -0.0325854 0.839394
0.267554 -0.0361881 0.839394
0.271268 -0.0362153 0.839394
0.263845 -0.0361613 0.839394
0.259202 -0.0360044 0.836364
0.263872 -0.0397635 0.839394
0.267582 -0.0397918 0.839394
0.260168 -0.0397356 0.839394
0.256468 -0.0397082 0.839394
0.260196 -0.0433375 0.839394
0.263901 -0.0433669 0.839394
0.256496 -0.0433086 0.839394
0.255516 -0.0359785 0.836364
0.251834 -0.035953 0.836364
0.25186 -0.0395379 0.836364
0.251888 -0.0431239 0.836364
0.252829 -0.0468804 0.839394
0.256525 -0.0469103 0.839394
0.260226 -0.0469406 0.839394
0.256556 -0.0505132 0.839394
0.260258 -0.050545 0.839394
0.25286 -0.0504818 0.839394
0.252891 -0.0540846 0.839394
0.256588 -0.0541174 0.839394
0.26123 -0.0543461 0.842424
0.257549 -0.0579313 0.842424
0.262204 -0.0581747 0.845455
0.253838 -0.057897 0.842424
0.254786 -0.0617369 0.845455
0.25851 -0.0617728 0.845455
0.26224 -0.0618092 0.845455
0.258547 -0.0654074 0.845455
0.263218 -0.0656799 0.848485
0.254822 -0.0653701 0.845455
0.25486 -0.0690047 0.845455
0.259513 -0.069291 0.848485
0.263257 -0.0693305 0.848485
0.259553 -0.0729418 0.848485
0.263297 -0.0729828 0.848485
0.255812 -0.0729014 0.848485
0.255853 -0.0765525 0.848485
0.259594 -0.0765943 0.848485
0.26428 -0.0769105 0.851515
0.259637 -0.0802486 0.848485
0.264324 -0.0805793 0.851515
0.255895 -0.0802053 0.848485
0.256853 -0.0841594 0.851515
0.260609 -0.0842043 0.851515
0.264369 -0.08425 0.851515
0.260655 -0.0878754 0.851515
0.264416 -0.0879225 0.851515
0.256898 -0.087829 0.851515
0.256945 -0.0915005 0.851515
0.260702 -0.0915484 0.851515
0.264464 -0.091597 0.851515
0.260751 -0.0952234 0.851515
0.265455 -0.0956126 0.854545
0.256993 -0.095174 0.851515
0.257043 -0.0988496 0.851515
0.260802 -0.0989005 0.851515
0.265507 -0.0993043 0.854545
0.261782 -0.102945 0.854545
0.26556 -0.102998 0.854545
0.257094 -0.102527 0.851515
0.258062 -0.106585 0.854545
0.261836 -0.106639 0.854545
0.265614 -0.106694 0.854545
0.261891 -0.110336 0.854545
0.26567 -0.110393 0.854545
0.258117 -0.110281 0.854545
0.254347 -0.110226 0.854545
0.258172 -0.113978 0.854545
0.261948 -0.114035 0.854545
0.254402 -0.113922 0.854545
0.250635 -0.113867 0.854545
0.254458 -0.117621 0.854545
0.259146 -0.118096 0.857576
0.25158 -0.117981 0.857576
0.251637 -0.121693 0.857576
0.255419 -0.121752 0.857576
0.259205 -0.121811 0.857576
0.256381 -0.125912 0.860606
0.260181 -0.125973 0.860606
0.251696 -0.125409 0.857576
0.247918 -0.12535 0.857576
0.252646 -0.129583 0.860606
0.256442 -0.129644 0.860606
0.247977 -0.129066 0.857576
0.244203 -0.129007 0.857576
0.248914 -0.133254 0.860606
0.252707 -0.133316 0.860606
0.245125 -0.133193 0.860606
0.240491 -0.132664 0.857576
0.245187 -0.136927 0.860606
0.248976 -0.136989 0.860606
0.241401 -0.136865 0.860606
0.236783 -0.136323 0.857576
0.241463 -0.1406 0.860606
0.245249 -0.140663 0.860606
0.23768 -0.140538 0.860606
0.233902 -0.140477 0.860606
0.237742 -0.144274 0.860606
0.241526 -0.144338 0.860606
0.233963 -0.144212 0.860606
0.230188 -0.144151 0.860606
0.234026 -0.14795 0.860606
0.237806 -0.148014 0.860606
0.23025 -0.147888 0.860606
0.226477 -0.147826 0.860606
0.230312 -0.151627 0.860606
0.234089 -0.151691 0.860606
0.226539 -0.151564 0.860606
0.22277 -0.151503 0.860606
0.226602 -0.155305 0.860606
0.230376 -0.155369 0.860606
0.223616 -0.155789 0.863636
0.219836 -0.155727 0.863636
0.223679 -0.159545 0.863636
0.227464 -0.15961 0.863636
0.219899 -0.159482 0.863636
0.21688 -0.159979 0.866667
0.220734 -0.163812 0.866667
0.223744 -0.163304 0.863636
0.216942 -0.163749 0.866667
0.213155 -0.163686 0.866667
0.217006 -0.167522 0.866667
0.220799 -0.167587 0.866667
0.213217 -0.167458 0.866667
0.210165 -0.16798 0.869697
0.213281 -0.171233 0.866667
0.217071 -0.171298 0.866667
0.210228 -0.171767 0.869697
0.206432 -0.171704 0.869697
0.210292 -0.175558 0.869697
0.214093 -0.175623 0.869697
0.206495 -0.175494 0.869697
0.203408 -0.176042 0.872727
0.207279 -0.179911 0.872727
0.210357 -0.179352 0.869697
0.203471 -0.179846 0.872727
0.203535 -0.183654 0.872727
0.207344 -0.18372 0.872727
0.211157 -0.183787 0.872727
0.207411 -0.187533 0.872727
0.211225 -0.187601 0.872727
0.203601 -0.187466 0.872727
0.204375 -0.191946 0.875758
0.2082 -0.192014 0.875758
0.211295 -0.191419 0.872727
0.20827 -0.195848 0.875758
0.2121 -0.195919 0.875758
0.204443 -0.195778 0.875758
0.204513 -0.199614 0.875758
0.208341 -0.199685 0.875758
0.212172 -0.199758 0.875758
0.209134 -0.204231 0.878788
0.212246 -0.2036 0.875758
0.205292 -0.204159 0.878788
0.205364 -0.208016 0.878788
0.209208 -0.20809 0.878788
0.212321 -0.207447 0.875758
0.209283 -0.211953 0.878788
0.213132 -0.212029 0.878788
0.205438 -0.211878 0.878788
0.205513 -0.215743 0.878788
0.20936 -0.21582 0.878788
0.21321 -0.215898 0.878788
0.209438 -0.219691 0.878788
0.21329 -0.21977 0.878788
0.205589 -0.219613 0.878788
0.206376 -0.224258 0.881818
0.209517 -0.223567 0.878788
0.21337 -0.223647 0.878788
0.21032 -0.228231 0.881818
0.213453 -0.227529 0.878788
0.206455 -0.22815 0.881818
0.206536 -0.232047 0.881818
0.210402 -0.232129 0.881818
0.214272 -0.232213 0.881818
0.210486 -0.236032 0.881818
0.214358 -0.236117 0.881818
0.206618 -0.235948 0.881818
0.20345 -0.236677 0.884848
0.207411 -0.240678 0.884848
0.210571 -0.239939 0.881818
0.203532 -0.240595 0.884848
0.199657 -0.240513 0.884848
0.203615 -0.244518 0.884848
0.207496 -0.244603 0.884848
0.199738 -0.244435 0.884848
0.196535 -0.24519 0.887879
0.200505 -0.249211 0.887879
0.2037 -0.248445 0.884848
0.196617 -0.249128 0.887879
0.192731 -0.249047 0.887879
0.196699 -0.253072 0.887879
0.20059 -0.253156 0.887879
0.192812 -0.252989 0.887879
0.189574 -0.253771 0.890909
0.193553 -0.257813 0.890909
0.197455 -0.257897 0.890909
0.189655 -0.257731 0.890909
0.189737 -0.261695 0.890909
0.193637 -0.261779 0.890909
0.197541 -0.261864 0.890909
0.193722 -0.265749 0.890909
0.197628 -0.265836 0.890909
0.190466 -0.266568 0.893939
0.190551 -0.270556 0.893939
0.193809 -0.269726 0.890909
0.197717 -0.269814 0.890909
0.194557 -0.274638 0.893939
0.198479 -0.274728 0.893939
0.190637 -0.27455 0.893939
0.187355 -0.275394 0.89697
0.190725 -0.278549 0.893939
0.194646 -0.278639 0.893939
0.187441 -0.279406 0.89697
0.187528 -0.283423 0.89697
0.191461 -0.283512 0.89697
0.194737 -0.282645 0.893939
0.191552 -0.287536 0.89697
0.19549 -0.287628 0.89697
0.187617 -0.287446 0.89697
0.188341 -0.292459 0.9
0.192291 -0.292551 0.9
0.195584 -0.29166 0.89697
0.192385 -0.296601 0.9
0.196341 -0.296696 0.9
0.188433 -0.296507 0.9
0.184484 -0.296416 0.9
0.189161 -0.301573 0.90303
0.19248 -0.300656 0.9
0.185197 -0.30148 0.90303
0.181236 -0.301389 0.90303
0.185911 -0.306578 0.906061
0.189256 -0.305647 0.90303
0.181935 -0.306485 0.906061
0.178558 -0.30742 0.909091
0.182028 -0.310577 0.906061
0.186006 -0.310671 0.906061
0.178648 -0.311523 0.909091
0.179336 -0.316685 0.912121
0.18273 -0.315727 0.909091
0.186724 -0.315822 0.909091
0.182826 -0.319844 0.909091
0.186821 -0.319941 0.909091
0.179429 -0.320815 0.912121
0.179524 -0.324952 0.912121
0.183532 -0.325048 0.912121
0.187543 -0.325147 0.912121
0.18363 -0.329193 0.912121
0.187644 -0.329293 0.912121
0.180217 -0.330188 0.915152
0.180315 -0.334352 0.915152
0.184341 -0.334452 0.915152
0.18837 -0.334554 0.915152
0.184442 -0.338624 0.915152
0.188474 -0.338728 0.915152
0.180414 -0.338523 0.915152
0.181113 -0.343836 0.918182
0.185156 -0.343939 0.918182
0.188579 -0.342909 0.915152
0.185261 -0.348139 0.918182
0.189311 -0.348246 0.918182
0.193364 -0.348355 0.918182
0.189419 -0.352456 0.918182
0.193475 -0.352566 0.918182
0.192617 -0.343016 0.915152
0.196657 -0.343126 0.915152
0.192509 -0.338834 0.915152
0.197421 -0.348467 0.918182
0.196547 -0.338942 0.915152
0.20059 -0.339052 0.915152
0.196439 -0.334765 0.915152
0.200702 -0.343238 0.915152
0.199815 -0.333765 0.912121
0.192402 -0.334658 0.915152
0.191661 -0.329396 0.912121
0.195682 -0.329501 0.912121
0.199706 -0.329608 0.912121
0.195576 -0.325352 0.912121
0.199598 -0.325457 0.912121
0.191558 -0.325248 0.912121
0.190821 -0.320041 0.909091
0.194823 -0.320142 0.909091
0.199492 -0.321313 0.912121
0.194072 -0.314967 0.906061
0.198063 -0.315069 0.906061
0.190085 -0.314867 0.906061
0.189987 -0.310767 0.906061
0.193323 -0.309825 0.90303
0.197299 -0.309925 0.90303
0.192577 -0.304718 0.9
0.196536 -0.304816 0.9
0.2005 -0.304917 0.9
0.196438 -0.300753 0.9
0.200602 -0.308987 0.9
0.200399 -0.300852 0.9
0.203676 -0.29994 0.89697
0.199625 -0.295794 0.89697
0.204467 -0.305019 0.9
0.203575 -0.295894 0.89697
0.207528 -0.295995 0.89697
0.203475 -0.291853 0.89697
0.207631 -0.300043 0.89697
0.207426 -0.291953 0.89697
0.199528 -0.291756 0.89697
0.198758 -0.286751 0.893939
0.20269 -0.286847 0.893939
0.206626 -0.286945 0.893939
0.202594 -0.282832 0.893939
0.206527 -0.282929 0.893939
0.198664 -0.282738 0.893939
0.198571 -0.27873 0.893939
0.202499 -0.278823 0.893939
0.205731 -0.277973 0.890909
0.201719 -0.273888 0.890909
0.205636 -0.273982 0.890909
0.209556 -0.274077 0.890909
0.205542 -0.269996 0.890909
0.209653 -0.27807 0.890909
0.209461 -0.27009 0.890909
0.201628 -0.269904 0.890909
0.201537 -0.265925 0.890909
0.20545 -0.266016 0.890909
0.208654 -0.265203 0.887879
0.204661 -0.261149 0.887879
0.208562 -0.26124 0.887879
0.201448 -0.261951 0.890909
0.200676 -0.257106 0.887879
0.204572 -0.257193 0.887879
0.208471 -0.257282 0.887879
0.204484 -0.253242 0.887879
0.207671 -0.252465 0.884848
0.211559 -0.252555 0.884848
0.207583 -0.248531 0.884848
0.212374 -0.257374 0.887879
0.211469 -0.248619 0.884848
0.215359 -0.248709 0.884848
0.211381 -0.244689 0.884848
0.215451 -0.252646 0.884848
0.214532 -0.243939 0.881818
0.218411 -0.244029 0.881818
0.214444 -0.240026 0.881818
0.219254 -0.2488 0.884848
0.218322 -0.240114 0.881818
0.222203 -0.240204 0.881818
0.218233 -0.236204 0.881818
0.222294 -0.24412 0.881818
0.222113 -0.236292 0.881818
0.225997 -0.236382 0.881818
0.221261 -0.231587 0.878788
0.226088 -0.240295 0.881818
0.22513 -0.231675 0.878788
0.218146 -0.232298 0.881818
0.217312 -0.227613 0.878788
0.221175 -0.227698 0.878788
0.225042 -0.227785 0.878788
0.221089 -0.223813 0.878788
0.224955 -0.223899 0.878788
0.217228 -0.22373 0.878788
0.217146 -0.219851 0.878788
0.221005 -0.219934 0.878788
0.224869 -0.220018 0.878788
0.220161 -0.215313 0.875758
0.22401 -0.215395 0.875758
0.217065 -0.215977 0.878788
0.216985 -0.212107 0.878788
0.22008 -0.211455 0.875758
0.223928 -0.211536 0.875758
0.220001 -0.207602 0.875758
0.223847 -0.207681 0.875758
0.216159 -0.207524 0.875758
0.216082 -0.203676 0.875758
0.219923 -0.203752 0.875758
0.223767 -0.20383 0.875758
0.219086 -0.199215 0.872727
0.222915 -0.199291 0.872727
0.216007 -0.199831 0.875758
0.215934 -0.195991 0.875758
0.219011 -0.195387 0.872727
0.222839 -0.195462 0.872727
0.218937 -0.191562 0.872727
0.222764 -0.191636 0.872727
0.215114 -0.19149 0.872727
0.215043 -0.187671 0.872727
0.218865 -0.187742 0.872727
0.22269 -0.187814 0.872727
0.218034 -0.183286 0.869697
0.221845 -0.183357 0.869697
0.214227 -0.183217 0.869697
0.214159 -0.179418 0.869697
0.217965 -0.179486 0.869697
0.221775 -0.179556 0.869697
0.217897 -0.17569 0.869697
0.221705 -0.175758 0.869697
0.225518 -0.175827 0.869697
0.220865 -0.171364 0.866667
0.225588 -0.179626 0.869697
0.224663 -0.171432 0.866667
0.228464 -0.171501 0.866667
0.224595 -0.167653 0.866667
0.228535 -0.175285 0.866667
0.228396 -0.16772 0.866667
0.2322 -0.167789 0.866667
0.22753 -0.16337 0.863636
0.23227 -0.171571 0.866667
0.23132 -0.163437 0.863636
0.235114 -0.163505 0.863636
0.231253 -0.159675 0.863636
0.236009 -0.167859 0.866667
0.235046 -0.159742 0.863636
0.238843 -0.15981 0.863636
0.234154 -0.155435 0.860606
0.238912 -0.163575 0.863636
0.238775 -0.156049 0.863636
0.242575 -0.156116 0.863636
0.237871 -0.151756 0.860606
0.242644 -0.159879 0.863636
0.242507 -0.152357 0.863636
0.24631 -0.152424 0.863636
0.24159 -0.148078 0.860606
0.246379 -0.156185 0.863636
0.246243 -0.148666 0.863636
0.25005 -0.148733 0.863636
0.245313 -0.144402 0.860606
0.250118 -0.152493 0.863636
0.249105 -0.144468 0.860606
0.253793 -0.145043 0.863636
0.24904 -0.140727 0.860606
0.253861 -0.148801 0.863636
0.253726 -0.141288 0.863636
0.257539 -0.141354 0.863636
0.252771 -0.137053 0.860606
0.257607 -0.145111 0.863636
0.25657 -0.137117 0.860606
0.26129 -0.137666 0.863636
0.256505 -0.13338 0.860606
0.261357 -0.141422 0.863636
0.261224 -0.133914 0.863636
0.265045 -0.133979 0.863636
0.260244 -0.129707 0.860606
0.265112 -0.137733 0.863636
0.26405 -0.129771 0.860606
0.268804 -0.130292 0.863636
0.263986 -0.126035 0.860606
0.26887 -0.134045 0.863636
0.268739 -0.126542 0.863636
0.272567 -0.126607 0.863636
0.267733 -0.122364 0.860606
0.272633 -0.130358 0.863636
0.271547 -0.122426 0.860606
0.262995 -0.121872 0.857576
0.262935 -0.118154 0.857576
0.26673 -0.118214 0.857576
0.271485 -0.118693 0.860606
0.26667 -0.114498 0.857576
0.270469 -0.114557 0.857576
0.274272 -0.114617 0.857576
0.269454 -0.11045 0.854545
0.274333 -0.118337 0.857576
0.274212 -0.1109 0.857576
0.278019 -0.110959 0.857576
0.274154 -0.107185 0.857576
0.279063 -0.115083 0.860606
0.27796 -0.107243 0.857576
0.269397 -0.10675 0.854545
0.269342 -0.103052 0.854545
0.273129 -0.103107 0.854545
0.277903 -0.103529 0.857576
0.273074 -0.0994105 0.854545
0.277847 -0.0998176 0.857576
0.269288 -0.099357 0.854545
0.269236 -0.0956637 0.854545
0.273021 -0.0957157 0.854545
0.276811 -0.0957684 0.854545
0.272969 -0.092023 0.854545
0.276759 -0.0920741 0.854545
0.269185 -0.0919726 0.854545
0.268181 -0.0879704 0.851515
0.272919 -0.0883323 0.854545
0.276708 -0.0883819 0.854545
0.271903 -0.0843434 0.851515
0.276659 -0.0846916 0.854545
0.268134 -0.0842964 0.851515
0.268088 -0.0806242 0.851515
0.271857 -0.0806697 0.851515
0.275631 -0.0807159 0.851515
0.271812 -0.0769978 0.851515
0.275585 -0.0770425 0.851515
0.268043 -0.0769538 0.851515
0.267047 -0.0730245 0.848485
0.271768 -0.0733277 0.851515
0.275541 -0.0733708 0.851515
0.271726 -0.0696593 0.851515
0.275498 -0.0697009 0.851515
0.267006 -0.0693707 0.848485
0.266966 -0.0657185 0.848485
0.270719 -0.0657577 0.848485
0.275457 -0.0660326 0.851515
0.27068 -0.0621056 0.848485
0.274437 -0.0621439 0.848485
0.265974 -0.0618462 0.845455
0.265938 -0.0582102 0.845455
0.270643 -0.058455 0.848485
0.2744 -0.0584918 0.848485
0.269641 -0.0546102 0.845455
0.273383 -0.0546452 0.845455
0.26495 -0.05438 0.842424
0.264916 -0.0507598 0.842424
0.26864 -0.0507928 0.842424
0.272369 -0.0508262 0.842424
0.268608 -0.0471724 0.842424
0.272336 -0.0472043 0.842424
0.263932 -0.0469714 0.839394
0.267611 -0.0433966 0.839394
0.272305 -0.0435837 0.842424
0.272275 -0.0399643 0.842424
0.276007 -0.0399935 0.842424
0.276038 -0.0436145 0.842424
0.275979 -0.0363737 0.842424
0.279716 -0.0364018 0.842424
0.279745 -0.0400232 0.842424
0.279688 -0.0327815 0.842424
0.28343 -0.0328084 0.842424
0.283458 -0.0364303 0.842424
0.283404 -0.0291876 0.842424
0.28715 -0.0292133 0.842424
0.287177 -0.0328358 0.842424
0.287125 -0.0255918 0.842424
0.290876 -0.0256162 0.842424
0.291948 -0.0293445 0.845455
0.290853 -0.021994 0.842424
0.295669 -0.0220962 0.845455
0.295693 -0.0257332 0.845455
0.295646 -0.0184602 0.845455
0.299421 -0.0184819 0.845455
0.299444 -0.0221197 0.845455
0.2994 -0.0148449 0.845455
0.304267 -0.0149186 0.848485
0.304289 -0.0185703 0.848485
0.304248 -0.0112676 0.848485
0.308047 -0.0112865 0.848485
0.309167 -0.0149926 0.851515
0.308029 -0.00763442 0.848485
0.312948 -0.00767915 0.851515
0.312966 -0.0113461 0.851515
0.312931 -0.00401284 0.851515
0.312986 -0.0150137 0.851515
0.309189 -0.0186592 0.851515
0.309213 -0.0223265 0.851515
0.304312 -0.0222229 0.848485
0.304337 -0.0258763 0.848485
0.310338 -0.0260873 0.854545
0.299469 -0.0257584 0.845455
0.300568 -0.0295033 0.848485
0.305451 -0.0296361 0.851515
0.295719 -0.029371 0.845455
0.296806 -0.0331282 0.848485
0.300596 -0.0331569 0.848485
0.291975 -0.0329817 0.845455
0.292004 -0.0366199 0.845455
0.296836 -0.0367811 0.848485
0.288238 -0.0365904 0.845455
0.288268 -0.040228 0.845455
0.293081 -0.0404034 0.848485
0.284507 -0.0401974 0.845455
0.284538 -0.0438346 0.845455
0.289333 -0.0440241 0.848485
0.279776 -0.0436457 0.842424
0.280814 -0.0474395 0.845455
0.284571 -0.0474729 0.845455
0.27607 -0.0472366 0.842424
0.277096 -0.051043 0.845455
0.280848 -0.0510776 0.845455
0.285626 -0.0512958 0.848485
0.282898 -0.0551092 0.851515
0.286682 -0.0551461 0.851515
0.278124 -0.0548768 0.848485
0.278161 -0.0585291 0.848485
0.282935 -0.0587761 0.851515
0.28672 -0.0588146 0.851515
0.282974 -0.0624444 0.851515
0.28778 -0.062707 0.854545
0.279193 -0.0624049 0.851515
0.279233 -0.0660732 0.851515
0.284022 -0.0663496 0.854545
0.287822 -0.0663916 0.854545
0.284064 -0.0700342 0.854545
0.287865 -0.0700778 0.854545
0.279275 -0.069743 0.851515
0.280312 -0.0736758 0.854545
0.284108 -0.0737204 0.854545
0.28791 -0.0737657 0.854545
0.284154 -0.0774084 0.854545
0.287956 -0.0774553 0.854545
0.280357 -0.0773622 0.854545
0.280404 -0.0810503 0.854545
0.284202 -0.0810981 0.854545
0.289026 -0.0814345 0.857576
0.284251 -0.0847898 0.854545
0.289075 -0.0851408 0.857576
0.280452 -0.0847403 0.854545
0.280502 -0.0884322 0.854545
0.285309 -0.0887971 0.857576
0.289127 -0.0888491 0.857576
0.285362 -0.0925057 0.857576
0.28918 -0.0925594 0.857576
0.281549 -0.0924528 0.857576
0.281602 -0.0961618 0.857576
0.285416 -0.0962164 0.857576
0.289235 -0.0962718 0.857576
0.285472 -0.0999292 0.857576
0.289292 -0.0999863 0.857576
0.281657 -0.099873 0.857576
0.281714 -0.103586 0.857576
0.285529 -0.103644 0.857576
0.290373 -0.104069 0.860606
0.286598 -0.107741 0.860606
0.290433 -0.107801 0.860606
0.281772 -0.107302 0.857576
0.282828 -0.111412 0.860606
0.286659 -0.111474 0.860606
0.290495 -0.111536 0.860606
0.287731 -0.115614 0.863636
0.292605 -0.116085 0.866667
0.28289 -0.115146 0.860606
0.282953 -0.118881 0.860606
0.287796 -0.119365 0.863636
0.279125 -0.118818 0.860606
0.280172 -0.122986 0.863636
0.284015 -0.123052 0.863636
0.275366 -0.12249 0.860606
0.2764 -0.126672 0.863636
0.281222 -0.127183 0.866667
0.285079 -0.127251 0.866667
0.28129 -0.130951 0.866667
0.285148 -0.131021 0.866667
0.277437 -0.130883 0.866667
0.277506 -0.134652 0.866667
0.281359 -0.134722 0.866667
0.273657 -0.134584 0.866667
0.273726 -0.138354 0.866667
0.277576 -0.138425 0.866667
0.269882 -0.138285 0.866667
0.269951 -0.142057 0.866667
0.273797 -0.142128 0.866667
0.26611 -0.141987 0.866667
0.26618 -0.14576 0.866667
0.270023 -0.145831 0.866667
0.262343 -0.145689 0.866667
0.262414 -0.149464 0.866667
0.266252 -0.149536 0.866667
0.257676 -0.148871 0.863636
0.258651 -0.153169 0.866667
0.262486 -0.153241 0.866667
0.25393 -0.152562 0.863636
0.254893 -0.156875 0.866667
0.258724 -0.156948 0.866667
0.250188 -0.156255 0.863636
0.251138 -0.160583 0.866667
0.254966 -0.160656 0.866667
0.24645 -0.15995 0.863636
0.247386 -0.164292 0.866667
0.251211 -0.164365 0.866667
0.242715 -0.163646 0.863636
0.243638 -0.168003 0.866667
0.24746 -0.168076 0.866667
0.239821 -0.16793 0.866667
0.239894 -0.171715 0.866667
0.243712 -0.171789 0.866667
0.23608 -0.171642 0.866667
0.236153 -0.175429 0.866667
0.239968 -0.175503 0.866667
0.232342 -0.175356 0.866667
0.233227 -0.179771 0.869697
0.237053 -0.179846 0.869697
0.229406 -0.179698 0.869697
0.229479 -0.183502 0.869697
0.233302 -0.183577 0.869697
0.22566 -0.183429 0.869697
0.22652 -0.187888 0.872727
0.230353 -0.187963 0.872727
0.234191 -0.188039 0.872727
0.23043 -0.191787 0.872727
0.234268 -0.191865 0.872727
0.226595 -0.191711 0.872727
0.226671 -0.195538 0.872727
0.230507 -0.195616 0.872727
0.234348 -0.195695 0.872727
0.230587 -0.199448 0.872727
0.234428 -0.199529 0.872727
0.226749 -0.199369 0.872727
0.227616 -0.20391 0.875758
0.231468 -0.203991 0.875758
0.235325 -0.204073 0.875758
0.23155 -0.207844 0.875758
0.235409 -0.207928 0.875758
0.227697 -0.207762 0.875758
0.227779 -0.211619 0.875758
0.231634 -0.211702 0.875758
0.235494 -0.211788 0.875758
0.23172 -0.215565 0.875758
0.235581 -0.215652 0.875758
0.227863 -0.215479 0.875758
0.227948 -0.219344 0.875758
0.231807 -0.219431 0.875758
0.235669 -0.219519 0.875758
0.232697 -0.224075 0.878788
0.236575 -0.224165 0.878788
0.228824 -0.223986 0.878788
0.228913 -0.227873 0.878788
0.232788 -0.227963 0.878788
0.236667 -0.228055 0.878788
0.232879 -0.231857 0.878788
0.23676 -0.23195 0.878788
0.229003 -0.231765 0.878788
0.229094 -0.235661 0.878788
0.232973 -0.235755 0.878788
0.236855 -0.23585 0.878788
0.233068 -0.239657 0.878788
0.236952 -0.239754 0.878788
0.229978 -0.240389 0.881818
0.230073 -0.244308 0.881818
0.233968 -0.244405 0.881818
0.226181 -0.244213 0.881818
0.227054 -0.248989 0.884848
0.230169 -0.248232 0.881818
0.223152 -0.248894 0.884848
0.223247 -0.252833 0.884848
0.22715 -0.25293 0.884848
0.219347 -0.252739 0.884848
0.219441 -0.256682 0.884848
0.223343 -0.256778 0.884848
0.215543 -0.256588 0.884848
0.216376 -0.261427 0.887879
0.220289 -0.261523 0.887879
0.212467 -0.261333 0.887879
0.212561 -0.265297 0.887879
0.216472 -0.265393 0.887879
0.220387 -0.26549 0.887879
0.21657 -0.269364 0.887879
0.220486 -0.269463 0.887879
0.212657 -0.269266 0.887879
0.21348 -0.274174 0.890909
0.217408 -0.274273 0.890909
0.22134 -0.274374 0.890909
0.217509 -0.278269 0.890909
0.221443 -0.278372 0.890909
0.213579 -0.278168 0.890909
0.214406 -0.283128 0.893939
0.217612 -0.28227 0.890909
0.210465 -0.283027 0.893939
0.210565 -0.287045 0.893939
0.214509 -0.287147 0.893939
0.218456 -0.287251 0.893939
0.214613 -0.291172 0.893939
0.218562 -0.291278 0.893939
0.211381 -0.292055 0.89697
0.211485 -0.296098 0.89697
0.215446 -0.296204 0.89697
0.219411 -0.296312 0.89697
0.215553 -0.300255 0.89697
0.21952 -0.300364 0.89697
0.21159 -0.300148 0.89697
0.211697 -0.304203 0.89697
0.215662 -0.304312 0.89697
0.207736 -0.304096 0.89697
0.208544 -0.309198 0.9
0.212521 -0.309306 0.9
0.204571 -0.309091 0.9
0.205366 -0.314225 0.90303
0.208652 -0.313278 0.9
0.201382 -0.314119 0.90303
0.20284 -0.320352 0.909091
0.206853 -0.32046 0.909091
0.210168 -0.319502 0.906061
0.207653 -0.325675 0.912121
0.210983 -0.324705 0.909091
0.203624 -0.325565 0.912121
0.203734 -0.329717 0.912121
0.207765 -0.329829 0.912121
0.211097 -0.328847 0.909091
0.207189 -0.33288 0.909091
0.211213 -0.332995 0.909091
0.203845 -0.333876 0.912121
0.203958 -0.338042 0.912121
0.207995 -0.338157 0.912121
0.211331 -0.337151 0.909091
0.208112 -0.342332 0.912121
0.212154 -0.342451 0.912121
0.204073 -0.342216 0.912121
0.204867 -0.347547 0.915152
0.208922 -0.347666 0.915152
0.200816 -0.347431 0.915152
0.201597 -0.352795 0.918182
0.204985 -0.351749 0.915152
0.197534 -0.35268 0.918182
0.19765 -0.3569 0.918182
0.201715 -0.357017 0.918182
0.193588 -0.356785 0.918182
0.194341 -0.362202 0.921212
0.198419 -0.362319 0.921212
0.201835 -0.361246 0.918182
0.198538 -0.366569 0.921212
0.202622 -0.36669 0.921212
0.194458 -0.36645 0.921212
0.194576 -0.370706 0.921212
0.198659 -0.370826 0.921212
0.202745 -0.370949 0.921212
0.198781 -0.375091 0.921212
0.20287 -0.375216 0.921212
0.194695 -0.37497 0.921212
0.195457 -0.380489 0.924242
0.198905 -0.379365 0.921212
0.202997 -0.379491 0.921212
0.199031 -0.383647 0.921212
0.203125 -0.383775 0.921212
0.195581 -0.384784 0.924242
0.195064 -0.387811 0.921212
0.199158 -0.387938 0.921212
0.191602 -0.388962 0.924242
0.191726 -0.393272 0.924242
0.19519 -0.392108 0.921212
0.187623 -0.393149 0.924242
0.187746 -0.397466 0.924242
0.191852 -0.397591 0.924242
0.183644 -0.397343 0.924242
0.183163 -0.400351 0.921212
0.187255 -0.400474 0.921212
0.179076 -0.40023 0.921212
0.178606 -0.403217 0.918182
0.182683 -0.403338 0.918182
0.173957 -0.401767 0.915152
0.169337 -0.400322 0.912121
0.172922 -0.403375 0.909091
0.176958 -0.403494 0.909091
0.168889 -0.403258 0.909091
0.164859 -0.403144 0.909091
0.168441 -0.406175 0.906061
0.172464 -0.406293 0.906061
0.164422 -0.40606 0.906061
0.165297 -0.400209 0.912121
0.161796 -0.401429 0.915152
0.160833 -0.403034 0.909091
0.160407 -0.405949 0.906061
0.156394 -0.405839 0.906061
0.155979 -0.408734 0.90303
0.159981 -0.408844 0.90303
0.15198 -0.408627 0.90303
0.147984 -0.408522 0.90303
0.151576 -0.411501 0.9
0.155565 -0.411609 0.9
0.148088 -0.41278 0.90303
0.144091 -0.412677 0.90303
0.147198 -0.414249 0.89697
0.151173 -0.414356 0.89697
0.143226 -0.414145 0.89697
0.143991 -0.408421 0.90303
0.14 -0.408322 0.90303
0.139158 -0.409808 0.89697
0.138786 -0.412646 0.893939
0.13529 -0.413947 0.89697
0.13493 -0.416778 0.893939
0.138886 -0.416877 0.893939
0.130532 -0.41527 0.890909
0.129738 -0.41664 0.884848
0.133654 -0.416737 0.884848
0.126256 -0.417974 0.887879
0.129389 -0.419404 0.881818
0.133295 -0.419501 0.881818
0.132936 -0.422247 0.878788
0.136833 -0.422348 0.878788
0.132118 -0.423503 0.872727
0.136465 -0.425076 0.875758
0.137203 -0.419602 0.881818
0.141599 -0.421147 0.884848
0.137573 -0.416836 0.884848
0.140734 -0.422452 0.878788
0.141979 -0.418366 0.887879
0.145917 -0.418471 0.887879
0.142845 -0.416979 0.893939
0.145526 -0.421253 0.884848
0.146806 -0.417084 0.893939
0.150771 -0.417191 0.893939
0.149858 -0.418579 0.887879
0.153801 -0.418691 0.887879
0.149456 -0.421363 0.884848
0.153389 -0.421475 0.884848
0.154738 -0.417302 0.893939
0.158709 -0.417415 0.893939
0.155151 -0.414465 0.89697
0.157748 -0.418805 0.887879
0.159132 -0.414577 0.89697
0.163116 -0.414693 0.89697
0.159556 -0.41172 0.9
0.162682 -0.417532 0.893939
0.163551 -0.411834 0.9
0.167549 -0.411952 0.9
0.163436 -0.407585 0.9
0.166539 -0.41341 0.893939
0.167431 -0.4077 0.9
0.172006 -0.409192 0.90303
0.17155 -0.412072 0.9
0.175554 -0.412195 0.9
0.171094 -0.414932 0.89697
0.175088 -0.415057 0.89697
0.175431 -0.40794 0.9
0.179436 -0.408065 0.9
0.176489 -0.406413 0.906061
0.179562 -0.412321 0.9
0.180518 -0.406537 0.906061
0.184551 -0.406663 0.906061
0.180997 -0.403616 0.909091
0.183444 -0.408192 0.9
0.185657 -0.405087 0.912121
0.189718 -0.405216 0.912121
0.186764 -0.403463 0.918182
0.189218 -0.408153 0.909091
