# .PCD v0.7 - Point Cloud Data file format
VERSION 0.7
FIELDS x y z
SIZE 4 4 4
TYPE F F F
COUNT 1 1 1
WIDTH 1756
HEIGHT 1
VIEWPOINT 0 0 0 1 0 0 0
POINTS 1756
DATA ascii
0.41126 0.0631721 1.05455
0.416035 0.0631877 1.05455
0.406493 0.0631569 1.05455
0.40058 0.0629604 1.05152
0.406479 0.0586093 1.05455
0.411246 0.0586221 1.05455
0.400566 0.0584283 1.05152
0.395828 0.0584159 1.05152
0.400555 0.0538965 1.05152
0.406468 0.054062 1.05455
0.395817 0.0538865 1.05152
0.391088 0.0538767 1.05152
0.396949 0.0494996 1.05455
0.4017 0.0495073 1.05455
0.391079 0.0493499 1.05152
0.386357 0.0493425 1.05152
0.3922 0.0449525 1.05455
0.396943 0.0449577 1.05455
0.387464 0.0449474 1.05455
0.382736 0.0449424 1.05455
0.387461 0.0404102 1.05455
0.392196 0.040413 1.05455
0.382732 0.0404075 1.05455
0.378012 0.0404048 1.05455
0.382731 0.0358726 1.05455
0.387459 0.0358731 1.05455
0.37801 0.0358721 1.05455
0.373296 0.0358717 1.05455
0.378011 0.0313394 1.05455
0.382731 0.0313377 1.05455
0.373297 0.0313412 1.05455
0.373298 0.0404023 1.05455
0.368591 0.0403998 1.05455
0.36859 0.0358714 1.05455
0.364935 0.0359742 1.05758
0.36859 0.031343 1.05455
0.363891 0.0313448 1.05455
0.359197 0.0313466 1.05455
0.363893 0.0268184 1.05455
0.368593 0.0268145 1.05455
0.3592 0.0268223 1.05455
0.359197 0.0358709 1.05455
0.35451 0.0358707 1.05455
0.35553 0.0314385 1.05758
0.350836 0.0314404 1.05758
0.354514 0.0268261 1.05455
0.349834 0.02683 1.05455
0.350835 0.0359736 1.05758
0.349831 0.0403908 1.05455
0.346148 0.0359735 1.05758
0.346149 0.0314423 1.05758
0.345157 0.0403887 1.05455
0.341193 0.0443909 1.04242
0.341467 0.0359735 1.05758
0.349834 0.0449111 1.05455
0.348834 0.0492895 1.05152
0.341468 0.0314442 1.05758
0.337758 0.0315362 1.06061
0.337761 0.0269957 1.06061
0.341471 0.0269147 1.05758
0.333079 0.0269995 1.06061
0.333084 0.0224607 1.06061
0.337766 0.022455 1.06061
0.329346 0.0225305 1.06364
0.329353 0.0179804 1.06364
0.333091 0.0179217 1.06061
0.324669 0.0179878 1.06364
0.324677 0.0134392 1.06364
0.329361 0.01343 1.06364
0.320911 0.0134866 1.06667
0.320921 0.00892649 1.06667
0.324687 0.00889023 1.06364
0.317133 0.00896267 1.0697
0.317145 0.00439088 1.0697
0.320933 0.00436588 1.06667
0.313337 0.00441577 1.07273
0.31335 -0.000167775 1.07273
0.317158 -0.000181466 1.0697
0.30952 -0.000154211 1.07576
0.309535 -0.0047496 1.07576
0.313365 -0.00475194 1.07273
0.317174 -0.00475442 1.0697
0.314267 -0.00936317 1.07576
0.317191 -0.00932808 1.0697
0.309551 -0.00934568 1.07576
0.309569 -0.0139425 1.07576
0.314285 -0.0139618 1.07576
0.305718 -0.0139628 1.07879
0.305738 -0.0185718 1.07879
0.309589 -0.0185402 1.07576
0.301019 -0.0185514 1.07879
0.30104 -0.0231596 1.07879
0.305759 -0.0231817 1.07879
0.297991 -0.023268 1.08485
0.298013 -0.0279014 1.08485
0.301063 -0.0277688 1.07879
0.293278 -0.0278783 1.08485
0.289354 -0.0279334 1.08788
0.293302 -0.0325112 1.08485
0.298038 -0.0325359 1.08485
0.289377 -0.0325777 1.08788
0.289402 -0.037223 1.08788
0.293327 -0.0371452 1.08485
0.285455 -0.0373011 1.09091
0.286275 -0.0420756 1.09394
0.290235 -0.0419863 1.09091
0.283073 -0.0422818 1.1
0.279823 -0.0424881 1.10606
0.2831 -0.0469783 1.1
0.286302 -0.0467478 1.09394
0.27985 -0.047209 1.10606
0.275799 -0.0473106 1.10909
0.279879 -0.0519313 1.10606
0.283129 -0.0516763 1.1
0.275827 -0.0520443 1.10909
0.275772 -0.0425783 1.10909
0.27244 -0.0427851 1.11515
0.271726 -0.0474125 1.11212
0.273155 -0.0381331 1.11818
0.273872 -0.0334566 1.12121
0.270489 -0.0384189 1.12727
0.269787 -0.0431082 1.12424
0.269086 -0.047773 1.12121
0.269113 -0.0525554 1.12121
0.271754 -0.0521576 1.11212
0.271783 -0.0569042 1.11212
0.275857 -0.0567794 1.10909
0.269142 -0.0573393 1.12121
0.268445 -0.0619569 1.11818
0.271814 -0.0616523 1.11212
0.275134 -0.061348 1.10606
0.271846 -0.0664021 1.11212
0.275167 -0.0660734 1.10606
0.267749 -0.0665502 1.11515
0.267783 -0.0713131 1.11515
0.27188 -0.0711536 1.11212
0.275201 -0.0708005 1.10606
0.275991 -0.0757363 1.10909
0.280813 -0.0757732 1.10909
0.276783 -0.0806998 1.11212
0.280851 -0.0805184 1.10909
0.279242 -0.0706417 1.10303
0.284041 -0.0706775 1.10303
0.279207 -0.065926 1.10303
0.284859 -0.0756036 1.10606
0.284006 -0.0659603 1.10303
0.288016 -0.0658139 1.1
0.283192 -0.0610766 1.1
0.288052 -0.0705197 1.1
0.287189 -0.0609414 1.09697
0.279941 -0.0613803 1.10606
0.279909 -0.056655 1.10606
0.28316 -0.0563756 1.1
0.287156 -0.0562519 1.09697
0.290324 -0.055973 1.09091
0.286332 -0.0514214 1.09394
0.291164 -0.0608067 1.09394
0.290293 -0.0513093 1.09091
0.294232 -0.0511976 1.08788
0.290263 -0.0466471 1.09091
0.294264 -0.05585 1.08788
0.294202 -0.0465467 1.08788
0.29812 -0.0464466 1.08485
0.293354 -0.0417805 1.08485
0.29815 -0.0510862 1.08485
0.298091 -0.0418084 1.08485
0.301987 -0.04172 1.08182
0.298063 -0.0371716 1.08485
0.302016 -0.0463469 1.08182
0.301959 -0.0370944 1.08182
0.305833 -0.0370176 1.07879
0.301933 -0.0324701 1.08182
0.305861 -0.0416319 1.07879
0.305807 -0.0324045 1.07879
0.310532 -0.0324303 1.07879
0.305782 -0.0277925 1.07879
0.310559 -0.0370451 1.07879
0.309634 -0.0277385 1.07576
0.314351 -0.0277629 1.07576
0.309611 -0.0231389 1.07576
0.314377 -0.0323653 1.07576
0.314327 -0.0231615 1.07576
0.318151 -0.0231192 1.07273
0.314305 -0.0185612 1.07576
0.318175 -0.0277094 1.07273
0.318128 -0.0185301 1.07273
0.32193 -0.0184992 1.0697
0.318108 -0.0139419 1.07273
0.321953 -0.0230772 1.0697
0.321909 -0.0139222 1.0697
0.32569 -0.0139027 1.06667
0.321891 -0.00934599 1.0697
0.325711 -0.0184685 1.06667
0.325671 -0.00933765 1.06667
0.32943 -0.00932946 1.06364
0.325654 -0.00477339 1.06667
0.32945 -0.0138833 1.06364
0.329413 -0.00477634 1.06364
0.321873 -0.00477057 1.0697
0.321858 -0.000195835 1.0697
0.325638 -0.000209814 1.06667
0.329397 -0.000223915 1.06364
0.324699 0.00434077 1.06364
0.328445 0.00431557 1.06061
0.33217 0.00429026 1.05758
0.328433 0.00885388 1.06061
0.333136 -0.000238136 1.06061
0.332158 0.00881745 1.05758
0.335861 0.00878094 1.05455
0.333099 0.0133824 1.06061
0.335874 0.00426486 1.05455
0.336816 0.0133348 1.05758
0.340513 0.0132871 1.05455
0.336808 0.017863 1.05758
0.338566 0.00871915 1.04848
0.340504 0.0178042 1.05455
0.34418 0.0177454 1.05152
0.341476 0.0223852 1.05758
0.345165 0.0223153 1.05455
0.349838 0.0223095 1.05455
0.346152 0.0269109 1.05758
0.349845 0.0177888 1.05455
0.354525 0.0177809 1.05455
0.347843 0.0131915 1.04848
0.354519 0.0223036 1.05455
0.359205 0.0222978 1.05455
0.359212 0.017773 1.05455
0.363905 0.017765 1.05455
0.363898 0.0222918 1.05455
0.367539 0.0222218 1.05152
0.368605 0.017757 1.05455
0.373312 0.0177489 1.05455
0.368614 0.0132278 1.05455
0.373321 0.0132176 1.05455
0.373305 0.0222798 1.05455
0.378019 0.0222738 1.05455
0.3733 0.0268106 1.05455
0.378026 0.0177406 1.05455
0.378013 0.0268067 1.05455
0.382734 0.0268028 1.05455
0.382739 0.0222677 1.05455
0.387467 0.0222615 1.05455
0.382747 0.0177324 1.05455
0.387475 0.017724 1.05455
0.387462 0.0267988 1.05455
0.392197 0.0267949 1.05455
0.387459 0.031336 1.05455
0.392203 0.0222554 1.05455
0.392195 0.0313343 1.05455
0.396937 0.0313327 1.05455
0.392194 0.0358737 1.05455
0.39694 0.026791 1.05455
0.396937 0.0358743 1.05455
0.401687 0.035875 1.05455
0.396939 0.040416 1.05455
0.401688 0.0313311 1.05455
0.401689 0.040419 1.05455
0.406448 0.0404222 1.05455
0.401694 0.0449631 1.05455
0.406445 0.0358758 1.05455
0.406452 0.0449686 1.05455
0.411218 0.0449742 1.05455
0.406459 0.0495152 1.05455
0.412395 0.0405416 1.05758
0.411225 0.0495232 1.05455
0.417195 0.0496738 1.05758
0.411234 0.0540725 1.05455
0.417188 0.0451093 1.05758
0.416009 0.0540832 1.05455
0.422001 0.0542495 1.05758
0.416021 0.0586352 1.05455
0.421991 0.0496823 1.05758
0.422013 0.0588171 1.05758
0.426818 0.0588308 1.05758
0.422028 0.0633852 1.05758
0.426806 0.0542607 1.05758
0.426833 0.0634014 1.05758
0.432884 0.0635996 1.06061
0.432869 0.0590134 1.06061
0.437705 0.0590277 1.06061
0.432856 0.0544276 1.06061
0.437692 0.0544393 1.06061
0.43772 0.0636165 1.06061
0.44383 0.0638155 1.06364
0.443814 0.0592109 1.06364
0.448682 0.0592258 1.06364
0.443801 0.0546068 1.06364
0.448668 0.054619 1.06364
0.448698 0.0638331 1.06364
0.454867 0.0640329 1.06667
0.454851 0.0594098 1.06667
0.461057 0.0595941 1.0697
0.454837 0.0547871 1.06667
0.461043 0.0549555 1.0697
0.461074 0.0642332 1.0697
0.465998 0.0642519 1.0697
0.461094 0.0688728 1.0697
0.46598 0.05961 1.0697
0.466018 0.0688944 1.0697
0.465966 0.0549686 1.0697
0.467274 0.0504701 1.07273
0.461031 0.0503173 1.0697
0.454825 0.0501648 1.06667
0.461022 0.0456794 1.0697
0.467265 0.0458162 1.07273
0.454817 0.0455427 1.06667
0.448649 0.0454063 1.06364
0.454811 0.0409209 1.06667
0.461016 0.0410417 1.0697
0.448643 0.0408003 1.06364
0.448657 0.0500125 1.06364
0.44379 0.050003 1.06364
0.443782 0.0453995 1.06364
0.437673 0.0452635 1.06061
0.443776 0.0407962 1.06364
0.437668 0.0406759 1.06061
0.437681 0.0498512 1.06061
0.432846 0.0498422 1.06061
0.432838 0.045257 1.06061
0.426788 0.0451214 1.05758
0.432833 0.040672 1.06061
0.426783 0.0405521 1.05758
0.426796 0.0496909 1.05758
0.421984 0.0451153 1.05758
0.421979 0.0405485 1.05758
0.417183 0.040545 1.05758
0.417181 0.0359807 1.05758
0.421977 0.0359818 1.05758
0.412393 0.0359798 1.05758
0.412393 0.031418 1.05758
0.417181 0.0314165 1.05758
0.406446 0.0313295 1.05455
0.407616 0.0268601 1.05758
0.412396 0.0268562 1.05758
0.40169 0.0267871 1.05455
0.401696 0.0222429 1.05455
0.407622 0.0223005 1.05758
0.396945 0.0222492 1.05455
0.396953 0.0177071 1.05455
0.401703 0.0176985 1.05455
0.39221 0.0177156 1.05455
0.392219 0.0131755 1.05455
0.396962 0.0131648 1.05455
0.387484 0.0131862 1.05455
0.382756 0.0131968 1.05455
0.387496 0.00864799 1.05455
0.392231 0.00863507 1.05455
0.382768 0.00866076 1.05455
0.37696 0.00864848 1.05152
0.382781 0.00412432 1.05455
0.38751 0.00410933 1.05455
0.376974 0.00412725 1.05152
0.378035 0.0132072 1.05455
0.373333 0.00868591 1.05455
0.373346 0.0041538 1.05455
0.369698 0.00418026 1.05758
0.368654 -0.000362254 1.05455
0.373362 -0.000378849 1.05455
0.378076 -0.000395647 1.05455
0.373379 -0.0049121 1.05455
0.378094 -0.00493105 1.05455
0.368672 -0.00489339 1.05455
0.363971 -0.00487492 1.05455
0.368692 -0.00942522 1.05455
0.373399 -0.00944604 1.05455
0.363991 -0.00940466 1.05455
0.359296 -0.00938437 1.05455
0.364012 -0.0139352 1.05455
0.368713 -0.0139578 1.05455
0.359318 -0.0139128 1.05455
0.355649 -0.0139307 1.05758
0.360373 -0.0184951 1.05758
0.365082 -0.0185196 1.05758
0.355672 -0.018471 1.05758
0.355628 -0.00939125 1.05758
0.35459 -0.00483867 1.05455
0.350933 -0.00937143 1.05758
0.350954 -0.0139089 1.05758
0.349909 -0.0048209 1.05455
0.349892 -0.000297895 1.05455
0.346226 -0.00481716 1.05758
0.346245 -0.00935188 1.05758
0.345218 -0.000282311 1.05455
0.34055 -0.00026693 1.05455
0.341545 -0.0047998 1.05758
0.347867 0.00420022 1.04848
0.338578 0.00422714 1.04848
0.341236 0.00418941 1.04242
0.341223 0.00865736 1.04242
0.343196 0.0132012 1.04848
0.347854 0.00869609 1.04848
0.336869 -0.00478268 1.05758
0.341563 -0.00933259 1.05758
0.337852 -0.00934025 1.06061
0.336853 -0.000252475 1.05758
0.333151 -0.00477944 1.06061
0.333169 -0.00932143 1.06061
0.334141 -0.0139038 1.06364
0.337872 -0.0138849 1.06061
0.342562 -0.0139059 1.06061
0.337894 -0.0184304 1.06061
0.342584 -0.0184532 1.06061
0.334162 -0.0184604 1.06364
0.329471 -0.0184381 1.06364
0.334186 -0.0230179 1.06364
0.338883 -0.0230424 1.06364
0.330433 -0.0230592 1.06667
0.325734 -0.0230353 1.06667
0.330458 -0.0276288 1.06667
0.334211 -0.0275763 1.06364
0.326684 -0.0276815 1.0697
0.322889 -0.0277345 1.07273
0.32671 -0.0322633 1.0697
0.330485 -0.0321995 1.06667
0.322915 -0.0323274 1.07273
0.3182 -0.0323006 1.07273
0.322943 -0.0369216 1.07273
0.326739 -0.0368463 1.0697
0.318228 -0.0368929 1.07273
0.314404 -0.0369689 1.07576
0.319156 -0.0416037 1.07576
0.322973 -0.0415169 1.07273
0.315318 -0.0416907 1.07879
0.310587 -0.0416611 1.07879
0.315349 -0.0463098 1.07879
0.319187 -0.0462115 1.07576
0.310617 -0.0462784 1.07879
0.305891 -0.0462475 1.07879
0.310649 -0.0508971 1.07879
0.315382 -0.0509302 1.07879
0.306782 -0.0510074 1.08182
0.302047 -0.0509752 1.08182
0.306815 -0.0556388 1.08182
0.310683 -0.0555172 1.07879
0.30208 -0.0556049 1.08182
0.299016 -0.0558829 1.08788
0.302114 -0.0602361 1.08182
0.30685 -0.0602717 1.08182
0.29905 -0.0605384 1.08788
0.294298 -0.0605038 1.08788
0.299918 -0.0653772 1.09091
0.302997 -0.0650507 1.08485
0.295152 -0.0653408 1.09091
0.292005 -0.0656679 1.09697
0.296009 -0.0702054 1.09394
0.299956 -0.0700489 1.09091
0.292041 -0.0703624 1.09697
0.292886 -0.0752659 1.1
0.296868 -0.0750978 1.09697
0.288883 -0.0754346 1.10303
0.288922 -0.080157 1.10303
0.292926 -0.079977 1.1
0.284897 -0.0803374 1.10606
0.284938 -0.0850732 1.10606
0.288963 -0.0848813 1.10303
0.28089 -0.0852655 1.10909
0.276822 -0.0854584 1.11212
0.280932 -0.0900147 1.10909
0.284199 -0.0895649 1.10303
0.276862 -0.090219 1.11212
0.272771 -0.0904238 1.11515
0.276904 -0.0949817 1.11212
0.281742 -0.0950249 1.11212
0.272813 -0.0951979 1.11515
0.274955 -0.08635 1.12424
0.276398 -0.0819807 1.1303
0.270115 -0.0911203 1.12424
0.272987 -0.0872415 1.13636
0.270156 -0.0959319 1.12424
0.271655 -0.101289 1.1303
0.274338 -0.100518 1.12121
0.277702 -0.100018 1.11515
0.275866 -0.105891 1.12727
0.277748 -0.104798 1.11515
0.281832 -0.10456 1.11212
0.277794 -0.109581 1.11515
0.28188 -0.109331 1.11212
0.274429 -0.110129 1.12121
0.281786 -0.0997913 1.11212
0.285068 -0.0992928 1.10606
0.285114 -0.104037 1.10606
0.285023 -0.0945508 1.10606
0.28905 -0.0943362 1.10303
0.289095 -0.0990668 1.10303
0.289006 -0.0896077 1.10303
0.293011 -0.089405 1.1
0.293055 -0.0941221 1.1
0.292968 -0.08469 1.1
0.29695 -0.0844991 1.09697
0.296994 -0.0892028 1.09697
0.296908 -0.0797975 1.09697
0.301703 -0.079839 1.09697
0.301745 -0.0845423 1.09697
0.300828 -0.0749301 1.09394
0.304767 -0.0747628 1.09091
0.305655 -0.0796606 1.09394
0.303881 -0.0698929 1.08788
0.307785 -0.0697373 1.08485
0.309545 -0.0748038 1.09091
0.307747 -0.0650881 1.08485
0.310756 -0.0647622 1.07879
0.311668 -0.069582 1.08182
0.310719 -0.0601389 1.07879
0.315452 -0.0601755 1.07879
0.31549 -0.0648006 1.07879
0.315416 -0.0555521 1.07879
0.319255 -0.0554314 1.07576
0.319292 -0.0600436 1.07576
0.31922 -0.0508207 1.07576
0.323038 -0.0507116 1.07273
0.323986 -0.0554673 1.07576
0.323005 -0.0461136 1.07273
0.327727 -0.0461463 1.07273
0.327761 -0.0507462 1.07273
0.326769 -0.0414305 1.0697
0.331483 -0.0414618 1.0697
0.331515 -0.0460491 1.0697
0.331452 -0.0368758 1.0697
0.335219 -0.0368011 1.06667
0.336203 -0.0414936 1.0697
0.33519 -0.0322274 1.06667
0.338936 -0.0321642 1.06364
0.339932 -0.0368314 1.06667
0.338909 -0.0276027 1.06364
0.342634 -0.0275508 1.06061
0.342662 -0.0321012 1.06061
0.342608 -0.0230015 1.06061
0.347304 -0.0230267 1.06061
0.34733 -0.0275779 1.06061
0.34728 -0.0184765 1.06061
0.350976 -0.0184472 1.05758
0.346265 -0.0138874 1.05758
0.351001 -0.0229864 1.05758
0.355697 -0.0230122 1.05758
0.352034 -0.0276054 1.06061
0.355724 -0.0275543 1.05758
0.360426 -0.0275825 1.05758
0.356772 -0.0321896 1.06061
0.360455 -0.0321278 1.05758
0.352062 -0.0321597 1.06061
0.360399 -0.0230383 1.05758
0.365107 -0.0230648 1.05758
0.365135 -0.0276111 1.05758
0.368791 -0.0275609 1.05455
0.365165 -0.0321584 1.05758
0.368821 -0.0320973 1.05455
0.368763 -0.0230256 1.05455
0.373472 -0.0230527 1.05455
0.368737 -0.0184912 1.05455
0.3735 -0.0275902 1.05455
0.373446 -0.0185163 1.05455
0.378161 -0.0185417 1.05455
0.373421 -0.0139807 1.05455
0.378188 -0.0230803 1.05455
0.378136 -0.014004 1.05455
0.382859 -0.0140275 1.05455
0.378114 -0.00946713 1.05455
0.382883 -0.0185674 1.05455
0.382836 -0.00948849 1.05455
0.387565 -0.00951012 1.05455
0.382816 -0.00495023 1.05455
0.387588 -0.0140514 1.05455
0.387544 -0.00496964 1.05455
0.39228 -0.00498929 1.05455
0.387526 -0.00042985 1.05455
0.392301 -0.00953202 1.05455
0.392262 -0.000447254 1.05455
0.382797 -0.000412647 1.05455
0.397005 -0.000464861 1.05455
0.392245 0.00409417 1.05455
0.397024 -0.00500918 1.05455
0.396989 0.00407885 1.05455
0.401739 0.00406335 1.05455
0.396974 0.00862202 1.05455
0.40291 -0.000484057 1.05758
0.401725 0.00860884 1.05455
0.407651 0.00862022 1.05758
0.401713 0.0131539 1.05455
0.407666 0.00405932 1.05758
0.407639 0.0131807 1.05758
0.412419 0.0131696 1.05758
0.407629 0.0177408 1.05758
0.412431 0.00860674 1.05758
0.412409 0.0177321 1.05758
0.417196 0.0177233 1.05758
0.412401 0.0222942 1.05758
0.418402 0.0131961 1.06061
0.417189 0.0222879 1.05758
0.423194 0.0223454 1.06061
0.417184 0.0268523 1.05758
0.423201 0.0177652 1.06061
0.423189 0.0269253 1.06061
0.428007 0.0269214 1.06061
0.423186 0.0315051 1.06061
0.428012 0.022339 1.06061
0.428004 0.0315037 1.06061
0.43283 0.0315024 1.06061
0.426781 0.0359829 1.05758
0.43407 0.0269944 1.06364
0.43283 0.0360872 1.06061
0.437665 0.0360885 1.06061
0.438916 0.0315911 1.06364
0.443773 0.0315899 1.06364
0.438918 0.0269905 1.06364
0.443776 0.0269867 1.06364
0.443774 0.036193 1.06364
0.44864 0.0361945 1.06364
0.44864 0.0315887 1.06364
0.454808 0.0316776 1.06667
0.449921 0.0270597 1.06667
0.45481 0.0270559 1.06667
0.454808 0.0362992 1.06667
0.461013 0.0364041 1.0697
0.461013 0.0317665 1.0697
0.461015 0.027129 1.0697
0.46102 0.0224913 1.0697
0.467263 0.0225484 1.07273
0.454815 0.0224341 1.06667
0.449926 0.0224406 1.06667
0.454823 0.0178121 1.06667
0.461028 0.0178534 1.0697
0.449934 0.0178213 1.06667
0.445053 0.0178305 1.06667
0.449944 0.0132018 1.06667
0.454834 0.0131898 1.06667
0.445064 0.0132136 1.06667
0.443781 0.0223834 1.06364
0.438924 0.0223899 1.06364
0.438931 0.017789 1.06364
0.434082 0.017798 1.06364
0.438942 0.0131878 1.06364
0.434093 0.0131994 1.06364
0.434075 0.0223963 1.06364
0.428019 0.0177563 1.06061
0.42803 0.0131733 1.06061
0.423212 0.0131848 1.06061
0.423224 0.00860395 1.06061
0.428042 0.00859003 1.06061
0.418414 0.00861774 1.06061
0.418429 0.00403894 1.06061
0.423239 0.00402268 1.06061
0.413628 0.00405503 1.06061
0.413645 -0.000521877 1.06061
0.418447 -0.000540399 1.06061
0.407683 -0.000502121 1.05758
0.407702 -0.00506417 1.05758
0.413664 -0.00509939 1.06061
0.40293 -0.00504375 1.05758
0.402951 -0.00960413 1.05758
0.407724 -0.00962691 1.05758
0.397045 -0.00955418 1.05455
0.397069 -0.0140999 1.05455
0.402975 -0.0141653 1.05758
0.392324 -0.0140755 1.05455
0.39235 -0.0186198 1.05455
0.398235 -0.0187001 1.05758
0.387613 -0.0185934 1.05455
0.38764 -0.0231364 1.05455
0.392378 -0.0231651 1.05455
0.38291 -0.0231082 1.05455
0.38294 -0.02765 1.05455
0.38767 -0.0276804 1.05455
0.378216 -0.0276199 1.05455
0.378247 -0.0321605 1.05455
0.384071 -0.0322853 1.05758
0.374604 -0.032221 1.05758
0.374637 -0.0367737 1.05758
0.379367 -0.0368078 1.05758
0.369914 -0.0367401 1.05758
0.365197 -0.0367069 1.05758
0.369948 -0.0412919 1.05758
0.374672 -0.0413276 1.05758
0.365231 -0.0412566 1.05758
0.36052 -0.0412219 1.05758
0.365267 -0.0458076 1.05758
0.369984 -0.045845 1.05758
0.360556 -0.0457708 1.05758
0.360487 -0.0366742 1.05758
0.356803 -0.036747 1.06061
0.356836 -0.0413056 1.06061
0.352125 -0.0412717 1.06061
0.356871 -0.0458655 1.06061
0.35216 -0.0458296 1.06061
0.352093 -0.0367151 1.06061
0.347389 -0.0366836 1.06061
0.348414 -0.0413561 1.06364
0.347359 -0.0321302 1.06061
0.343671 -0.0367574 1.06364
0.343702 -0.0413231 1.06364
0.339963 -0.0414082 1.06667
0.339996 -0.0459863 1.06667
0.343736 -0.0458901 1.06364
0.336236 -0.0460828 1.0697
0.336271 -0.0506733 1.0697
0.340032 -0.0505657 1.06667
0.33155 -0.0506378 1.0697
0.332525 -0.0553844 1.07273
0.336307 -0.0552653 1.0697
0.327796 -0.0553475 1.07273
0.327834 -0.0599503 1.07273
0.332563 -0.0599891 1.07273
0.324023 -0.0600813 1.07576
0.323149 -0.0645147 1.07273
0.327873 -0.0645547 1.07273
0.31933 -0.0646574 1.07576
0.31937 -0.0692729 1.07576
0.324103 -0.0693142 1.07576
0.315529 -0.0694273 1.07879
0.316457 -0.0742638 1.08182
0.319412 -0.0738901 1.07576
0.312582 -0.0744297 1.08485
0.313498 -0.0793051 1.08788
0.317387 -0.0791281 1.08485
0.310447 -0.0797034 1.09394
0.310491 -0.0843971 1.09394
0.313542 -0.0839746 1.08788
0.305699 -0.0843526 1.09394
0.305744 -0.0890466 1.09394
0.309677 -0.0888461 1.09091
0.30179 -0.0892477 1.09697
0.301836 -0.0939551 1.09697
0.304944 -0.0934831 1.09091
0.297039 -0.0939086 1.09697
0.297086 -0.0986165 1.09697
0.30105 -0.0983921 1.09394
0.293101 -0.0988413 1.1
0.293149 -0.103563 1.1
0.297135 -0.103327 1.09697
0.289143 -0.1038 1.10303
0.289191 -0.108535 1.10303
0.292391 -0.107988 1.09697
0.285162 -0.108784 1.10606
0.285212 -0.113533 1.10606
0.289242 -0.113272 1.10303
0.281929 -0.114104 1.11212
0.277843 -0.114366 1.11515
0.282748 -0.119204 1.11515
0.286045 -0.118608 1.10909
0.277893 -0.119153 1.11515
0.277944 -0.123943 1.11515
0.282032 -0.123659 1.11212
0.274577 -0.124565 1.12121
0.27601 -0.120398 1.12727
0.274629 -0.129382 1.12121
0.271943 -0.130378 1.1303
0.271267 -0.134873 1.12727
0.273941 -0.133839 1.11818
0.278052 -0.133531 1.11515
0.274739 -0.139024 1.12121
0.278108 -0.138329 1.11515
0.271321 -0.13972 1.12727
0.277242 -0.128386 1.11212
0.281317 -0.12809 1.10909
0.282141 -0.133224 1.11212
0.286209 -0.132918 1.10909
0.282967 -0.138387 1.11515
0.286267 -0.137693 1.10909
0.285371 -0.127795 1.10606
0.289403 -0.127501 1.10303
0.285316 -0.123038 1.10606
0.28946 -0.132249 1.10303
0.289348 -0.122755 1.10303
0.293358 -0.122473 1.1
0.290089 -0.118337 1.10606
0.293414 -0.127207 1.1
0.294111 -0.118066 1.10303
0.297291 -0.117471 1.09697
0.29325 -0.113013 1.1
0.297346 -0.122191 1.09697
0.297237 -0.112754 1.09697
0.301203 -0.112496 1.09394
0.296364 -0.107741 1.09394
0.301257 -0.117202 1.09394
0.30115 -0.107792 1.09394
0.304246 -0.107247 1.08788
0.301099 -0.103091 1.09394
0.304299 -0.111926 1.08788
0.305042 -0.102856 1.09091
0.308964 -0.102621 1.08788
0.304992 -0.0981683 1.09091
0.309016 -0.1073 1.08788
0.308913 -0.0979451 1.08788
0.312812 -0.0977224 1.08485
0.308864 -0.0932711 1.08788
0.312864 -0.102387 1.08485
0.312763 -0.0930597 1.08485
0.317528 -0.0931089 1.08485
0.312715 -0.0883992 1.08485
0.317578 -0.0977734 1.08485
0.317479 -0.0884466 1.08485
0.320448 -0.0880004 1.07879
0.317432 -0.0837863 1.08485
0.320498 -0.0926384 1.07879
0.320401 -0.0833644 1.07879
0.324236 -0.083177 1.07576
0.319456 -0.0785092 1.07576
0.324284 -0.0878017 1.07576
0.324189 -0.0785542 1.07576
0.328003 -0.0783784 1.07273
0.324145 -0.0739333 1.07576
0.328049 -0.08299 1.07273
0.327958 -0.0737687 1.07273
0.331749 -0.0736045 1.0697
0.327915 -0.0691608 1.07273
0.331795 -0.0782031 1.0697
0.331706 -0.0690078 1.0697
0.336429 -0.0690509 1.0697
0.331664 -0.0644129 1.0697
0.336473 -0.0736495 1.0697
0.336387 -0.064454 1.0697
0.340149 -0.0643131 1.06667
0.336346 -0.0598589 1.0697
0.340192 -0.0688988 1.06667
0.340108 -0.0597291 1.06667
0.344829 -0.0597694 1.06667
0.340069 -0.0551466 1.06667
0.34487 -0.0643554 1.06667
0.344789 -0.0551851 1.06667
0.348522 -0.0550672 1.06364
0.343772 -0.0504585 1.06364
0.348563 -0.0596405 1.06364
0.348484 -0.0504954 1.06364
0.352197 -0.0503889 1.06061
0.348448 -0.0459251 1.06364
0.352235 -0.0549496 1.06061
0.356948 -0.0549896 1.06061
0.353283 -0.059682 1.06364
0.356989 -0.0595539 1.06061
0.356909 -0.0504268 1.06061
0.360594 -0.0503211 1.05758
0.361667 -0.0550301 1.06061
0.365345 -0.0549138 1.05758
0.361708 -0.0595964 1.06061
0.366434 -0.0596396 1.06061
0.365305 -0.05036 1.05758
0.370023 -0.0503995 1.05758
0.370064 -0.0549554 1.05758
0.37479 -0.0549976 1.05758
0.370107 -0.0595129 1.05758
0.374833 -0.0595572 1.05758
0.374748 -0.0504395 1.05758
0.37948 -0.0504801 1.05758
0.374709 -0.0458829 1.05758
0.379522 -0.0550403 1.05758
0.37944 -0.0459213 1.05758
0.384179 -0.0459602 1.05758
0.379403 -0.0413639 1.05758
0.384219 -0.0505212 1.05758
0.384141 -0.0414006 1.05758
0.388886 -0.0414379 1.05758
0.384105 -0.0368424 1.05758
0.388925 -0.0459997 1.05758
0.38885 -0.0368774 1.05758
0.393602 -0.0369129 1.05758
0.388816 -0.0323181 1.05758
0.393639 -0.0414756 1.05758
0.393567 -0.0323513 1.05758
0.398327 -0.032385 1.05758
0.392408 -0.0277113 1.05455
0.398362 -0.0369488 1.05758
0.398294 -0.0278223 1.05758
0.40306 -0.0278541 1.05758
0.398264 -0.0232607 1.05758
0.403093 -0.0324191 1.05758
0.403029 -0.0232902 1.05758
0.407803 -0.02332 1.05758
0.403001 -0.0187273 1.05758
0.409003 -0.0279662 1.06061
0.407774 -0.0187548 1.05758
0.413738 -0.0188364 1.06061
0.407748 -0.0141904 1.05758
0.413767 -0.0234172 1.06061
0.413711 -0.0142566 1.06061
0.418514 -0.0142824 1.06061
0.413686 -0.0096776 1.06061
0.418541 -0.0188647 1.06061
0.418489 -0.00970098 1.06061
0.423299 -0.00972464 1.06061
0.418467 -0.00512034 1.06061
0.423325 -0.0143085 1.06061
0.423277 -0.00514154 1.06061
0.428096 -0.00516297 1.06061
0.423257 -0.000559123 1.06061
0.429342 -0.00977643 1.06364
0.428075 -0.000578051 1.06061
0.434139 -0.000598889 1.06364
0.428058 0.00400625 1.06061
0.43416 -0.00519945 1.06364
0.434121 0.00400106 1.06364
0.43897 0.00398425 1.06364
0.434106 0.00860047 1.06364
0.438988 -0.000618278 1.06364
0.438955 0.00858625 1.06364
0.445077 0.00859632 1.06667
0.445093 0.00397858 1.06667
0.449974 0.0039614 1.06667
0.445111 -0.000639689 1.06667
0.449992 -0.000659542 1.06667
0.449958 0.0085818 1.06667
0.456139 0.00859149 1.0697
0.456156 0.00395525 1.0697
0.461069 0.00393768 1.0697
0.456174 -0.000681531 1.0697
0.461088 -0.00070185 1.0697
0.461053 0.00857668 1.0697
0.465975 0.00856173 1.0697
0.461039 0.0132152 1.0697
0.465991 0.00391995 1.0697
0.467281 0.0132405 1.07273
0.467271 0.0178946 1.07273
0.472258 0.0039131 1.07273
0.467331 -0.000724421 1.07273
0.467353 -0.00538051 1.07273
0.473634 -0.0054194 1.07576
0.462416 -0.00535713 1.07273
0.456196 -0.00531893 1.0697
0.46244 -0.0100111 1.07273
0.467378 -0.0100373 1.07273
0.45622 -0.00995702 1.0697
0.451316 -0.00993148 1.0697
0.456247 -0.0145959 1.0697
0.462468 -0.0146659 1.07273
0.451343 -0.0145676 1.0697
0.450013 -0.0052811 1.06667
0.445132 -0.00525858 1.06667
0.445156 -0.00987816 1.06667
0.440283 -0.00985325 1.06667
0.446447 -0.0145397 1.0697
0.44031 -0.014471 1.06667
0.439009 -0.00522142 1.06364
0.434183 -0.00980071 1.06364
0.435446 -0.0144438 1.06667
0.429367 -0.0143759 1.06364
0.429395 -0.0189762 1.06364
0.435474 -0.0190598 1.06667
0.424562 -0.0189472 1.06364
0.424592 -0.023546 1.06364
0.429425 -0.0235775 1.06364
0.41857 -0.0234478 1.06061
0.418603 -0.028032 1.06061
0.424624 -0.0281458 1.06364
0.413799 -0.0279989 1.06061
0.413833 -0.0325818 1.06061
0.418637 -0.0326173 1.06061
0.409037 -0.0325467 1.06061
0.409073 -0.0371283 1.06061
0.413869 -0.0371658 1.06061
0.403129 -0.0369853 1.05758
0.404322 -0.0416717 1.06061
0.409111 -0.0417111 1.06061
0.398399 -0.0415139 1.05758
0.398439 -0.0460803 1.05758
0.404362 -0.0462535 1.06061
0.393678 -0.0460397 1.05758
0.393719 -0.0506052 1.05758
0.399622 -0.0507932 1.06061
0.388966 -0.0505629 1.05758
0.389009 -0.0551276 1.05758
0.394891 -0.0553302 1.06061
0.384262 -0.0550837 1.05758
0.384307 -0.0596476 1.05758
0.390169 -0.0598649 1.06061
0.379566 -0.0596021 1.05758
0.3807 -0.0643493 1.06061
0.385455 -0.0643972 1.06061
0.375953 -0.0643021 1.06061
0.371213 -0.0642555 1.06061
0.376001 -0.0688781 1.06061
0.380749 -0.0689275 1.06061
0.37126 -0.0688294 1.06061
0.366526 -0.0687813 1.06061
0.371309 -0.073405 1.06061
0.376051 -0.0734558 1.06061
0.366574 -0.0733548 1.06061
0.366479 -0.0642096 1.06061
0.361752 -0.0641644 1.06061
0.361798 -0.068734 1.06061
0.358098 -0.0688836 1.06364
0.361846 -0.0733054 1.06061
0.358145 -0.073466 1.06364
0.358052 -0.064303 1.06364
0.353325 -0.0642589 1.06364
0.35337 -0.0688375 1.06364
0.348649 -0.068792 1.06364
0.353417 -0.0734178 1.06364
0.348695 -0.0733704 1.06364
0.348605 -0.0642154 1.06364
0.344914 -0.0689431 1.06667
0.34496 -0.0735325 1.06667
0.340237 -0.0734863 1.06667
0.340284 -0.0780756 1.06667
0.345007 -0.0781238 1.06667
0.336519 -0.0782499 1.0697
0.336568 -0.0828523 1.0697
0.340332 -0.0826669 1.06667
0.331842 -0.0828035 1.0697
0.332832 -0.0876536 1.07273
0.336618 -0.0874566 1.0697
0.328098 -0.0876036 1.07273
0.328149 -0.0922193 1.07273
0.332883 -0.0922711 1.07273
0.325247 -0.092689 1.07879
0.325299 -0.097331 1.07879
0.328201 -0.0968371 1.07273
0.320549 -0.0972787 1.07879
0.321502 -0.102207 1.08182
0.325353 -0.101975 1.07879
0.31763 -0.10244 1.08485
0.317685 -0.107109 1.08485
0.321557 -0.106865 1.08182
0.312917 -0.107055 1.08485
0.312972 -0.111724 1.08485
0.31774 -0.111781 1.08485
0.30907 -0.111981 1.08788
0.309126 -0.116664 1.08788
0.313029 -0.116396 1.08485
0.305202 -0.116933 1.09091
0.305259 -0.12163 1.09091
0.309184 -0.12135 1.08788
0.301313 -0.12191 1.09394
0.301371 -0.126621 1.09394
0.305318 -0.12633 1.09091
0.297403 -0.126914 1.09697
0.297462 -0.131639 1.09697
0.302266 -0.131699 1.09697
0.293472 -0.131943 1.1
0.293531 -0.136683 1.1
0.297522 -0.136367 1.09697
0.289519 -0.136999 1.10303
0.289579 -0.141753 1.10303
0.293592 -0.141425 1.1
0.286326 -0.142471 1.10909
0.283026 -0.143189 1.11515
0.286388 -0.147252 1.10909
0.289641 -0.14651 1.10303
0.282317 -0.147593 1.11212
0.278225 -0.147934 1.11515
0.282379 -0.152389 1.11212
0.286451 -0.152037 1.10909
0.278286 -0.152742 1.11515
0.278166 -0.14313 1.11515
0.275538 -0.144239 1.12424
0.275597 -0.14908 1.12424
0.272165 -0.149825 1.1303
0.274914 -0.15351 1.12121
0.270765 -0.153865 1.12424
0.272837 -0.145347 1.13333
0.272285 -0.159567 1.1303
0.274976 -0.158345 1.12121
0.278348 -0.157552 1.11515
0.279926 -0.163248 1.12121
0.284047 -0.162872 1.11818
0.279992 -0.168091 1.12121
0.284114 -0.167704 1.11818
0.283212 -0.157616 1.11515
0.286515 -0.156824 1.10909
0.287364 -0.162056 1.11212
0.290633 -0.16124 1.10606
0.287432 -0.166863 1.11212
0.290702 -0.166023 1.10606
0.290566 -0.156461 1.10606
0.294595 -0.156099 1.10303
0.2905 -0.151685 1.10606
0.294664 -0.160867 1.10303
0.294529 -0.151335 1.10303
0.297714 -0.150569 1.09697
0.293655 -0.146171 1.1
0.297781 -0.155309 1.09697
0.297648 -0.145832 1.09697
0.302455 -0.145897 1.09697
0.297584 -0.141098 1.09697
0.302522 -0.150636 1.09697
0.30239 -0.141162 1.09697
0.305504 -0.140446 1.09091
0.302327 -0.136429 1.09697
0.30557 -0.145157 1.09091
0.30544 -0.135738 1.09091
0.310229 -0.135801 1.09091
0.305378 -0.131032 1.09091
0.310294 -0.140511 1.09091
0.309305 -0.13073 1.08788
0.314085 -0.130793 1.08788
0.309243 -0.126039 1.08788
0.314149 -0.135488 1.08788
0.314022 -0.126099 1.08788
0.317919 -0.12581 1.08485
0.313962 -0.121409 1.08788
0.317982 -0.130492 1.08485
0.317858 -0.121131 1.08485
0.321732 -0.120853 1.08182
0.317798 -0.116454 1.08485
0.321794 -0.125521 1.08182
0.321672 -0.116188 1.08182
0.325525 -0.115922 1.07879
0.321614 -0.111525 1.08182
0.325586 -0.120576 1.07879
0.325466 -0.111271 1.07879
0.329297 -0.111017 1.07576
0.325408 -0.106622 1.07879
0.329357 -0.115657 1.07576
0.329239 -0.106379 1.07576
0.333048 -0.106137 1.07273
0.329182 -0.101744 1.07576
0.333107 -0.110764 1.07273
0.332991 -0.101513 1.07273
0.335825 -0.100995 1.06667
0.332936 -0.0968908 1.07273
0.336837 -0.105895 1.0697
0.336724 -0.0966715 1.0697
0.34049 -0.0964528 1.06667
0.33667 -0.092063 1.0697
0.340547 -0.101052 1.06667
0.340436 -0.0918554 1.06667
0.344181 -0.0916482 1.06364
0.340383 -0.0872601 1.06667
0.344236 -0.0962346 1.06364
0.344128 -0.0870641 1.06364
0.348845 -0.0871168 1.06364
0.344076 -0.082482 1.06364
0.348899 -0.0917029 1.06364
0.348793 -0.0825327 1.06364
0.353517 -0.0825841 1.06364
0.348743 -0.0779506 1.06364
0.353569 -0.0871702 1.06364
0.353466 -0.078 1.06364
0.358195 -0.0780502 1.06364
0.358246 -0.0826363 1.06364
0.361949 -0.0824538 1.06061
0.3583 -0.0872245 1.06364
0.362003 -0.0870309 1.06061
0.361896 -0.0778786 1.06061
0.366625 -0.0779301 1.06061
0.366678 -0.0825074 1.06061
0.371415 -0.0825618 1.06061
0.366733 -0.0870866 1.06061
0.371471 -0.0871432 1.06061
0.371361 -0.0779824 1.06061
0.376103 -0.0780355 1.06061
0.376158 -0.082617 1.06061
0.380908 -0.082673 1.06061
0.376215 -0.0872006 1.06061
0.380966 -0.0872588 1.06061
0.380853 -0.0780893 1.06061
0.38561 -0.0781438 1.06061
0.3808 -0.0735075 1.06061
0.385666 -0.0827298 1.06061
0.385556 -0.0735598 1.06061
0.390319 -0.0736129 1.06061
0.385504 -0.0689776 1.06061
0.390374 -0.0781992 1.06061
0.390267 -0.0690284 1.06061
0.395037 -0.06908 1.06061
0.390217 -0.0644458 1.06061
0.39509 -0.0736667 1.06061
0.394986 -0.064495 1.06061
0.399763 -0.064545 1.06061
0.394938 -0.0599118 1.06061
0.399814 -0.0691322 1.06061
0.399714 -0.0599594 1.06061
0.404497 -0.0600077 1.06061
0.399667 -0.0553755 1.06061
0.405703 -0.0647801 1.06364
0.40445 -0.0554214 1.06061
0.41041 -0.0556264 1.06364
0.404405 -0.0508368 1.06061
0.410458 -0.0602282 1.06364
0.409195 -0.0508809 1.06061
0.415176 -0.0510711 1.06364
0.409152 -0.0462953 1.06061
0.415223 -0.0556737 1.06364
0.41395 -0.0463376 1.06061
0.419952 -0.046513 1.06364
0.415091 -0.0418703 1.06364
0.419997 -0.0511166 1.06364
0.41991 -0.0419109 1.06364
0.424737 -0.041952 1.06364
0.418674 -0.0372038 1.06061
0.42478 -0.0465566 1.06364
0.424697 -0.0373487 1.06364
0.429532 -0.0373878 1.06364
0.424659 -0.0327466 1.06364
0.429573 -0.0419936 1.06364
0.429494 -0.0327832 1.06364
0.435574 -0.0329137 1.06667
0.429458 -0.0281798 1.06364
0.435613 -0.037534 1.06667
0.435538 -0.0282947 1.06667
0.440403 -0.0283297 1.06667
0.435505 -0.0236767 1.06667
0.44044 -0.0329513 1.06667
0.440369 -0.0237091 1.06667
0.446508 -0.0238094 1.0697
0.440338 -0.0190896 1.06667
0.446542 -0.0284457 1.0697
0.446476 -0.0191741 1.0697
0.451372 -0.0192047 1.0697
0.451404 -0.0238426 1.0697
0.457602 -0.023944 1.07273
0.451439 -0.0284816 1.0697
0.457638 -0.0285988 1.07273
0.456277 -0.0192356 1.0697
0.462498 -0.0193215 1.07273
0.463838 -0.0240459 1.07576
0.46879 -0.0240806 1.07576
0.463874 -0.0287167 1.07576
0.468826 -0.0287542 1.07576
0.468757 -0.019408 1.07576
0.467406 -0.0146949 1.07273
0.470186 -0.033523 1.07879
0.463912 -0.0333886 1.07576
0.457676 -0.0332548 1.07273
0.463954 -0.0380617 1.07576
0.471549 -0.0383195 1.08182
0.457717 -0.037912 1.07273
0.451517 -0.037763 1.0697
0.45776 -0.0425704 1.07273
0.463998 -0.0427361 1.07576
0.45156 -0.0424056 1.0697
0.451477 -0.0331218 1.0697
0.446579 -0.0330831 1.0697
0.446619 -0.0377217 1.0697
0.440479 -0.0375742 1.06667
0.446662 -0.0423616 1.0697
0.440521 -0.0421983 1.06667
0.435654 -0.0421555 1.06667
0.440565 -0.0468237 1.06667
0.446707 -0.0470029 1.0697
0.435698 -0.0467783 1.06667
0.429616 -0.0466007 1.06364
0.435744 -0.0514026 1.06667
0.441864 -0.0515968 1.0697
0.430885 -0.0513552 1.06667
0.426035 -0.0513084 1.06667
0.430934 -0.0559784 1.06667
0.437032 -0.0561875 1.0697
0.426083 -0.0559291 1.06667
0.420043 -0.0557216 1.06364
0.426133 -0.0605513 1.06667
0.430985 -0.0606032 1.06667
0.420093 -0.0603283 1.06364
0.415272 -0.0602779 1.06364
0.421342 -0.0651216 1.06667
0.426186 -0.0651753 1.06667
0.416506 -0.0650686 1.06667
0.410509 -0.0648316 1.06364
0.41656 -0.0696892 1.06667
0.421397 -0.0697447 1.06667
0.410562 -0.0694367 1.06364
0.405755 -0.0693828 1.06364
0.410617 -0.0740436 1.06364
0.416616 -0.0743117 1.06667
0.40581 -0.0739874 1.06364
0.399868 -0.0737213 1.06061
0.405867 -0.0785938 1.06364
0.410675 -0.0786524 1.06364
0.401067 -0.0785359 1.06364
0.395145 -0.0782553 1.06061
0.401125 -0.0831419 1.06364
0.405927 -0.0832021 1.06364
0.395203 -0.0828458 1.06061
0.390431 -0.0827874 1.06061
0.395263 -0.0874384 1.06061
0.401186 -0.08775 1.06364
0.39049 -0.0873777 1.06061
0.385724 -0.0873178 1.06061
0.390551 -0.0919701 1.06061
0.395325 -0.0920331 1.06061
0.385785 -0.0919079 1.06061
0.381026 -0.0918466 1.06061
0.385847 -0.0965002 1.06061
0.391731 -0.0968405 1.06364
0.381087 -0.0964367 1.06061
0.376335 -0.096374 1.06061
0.381152 -0.101029 1.06061
0.385913 -0.101095 1.06061
0.376398 -0.100964 1.06061
0.376273 -0.0917862 1.06061
0.371529 -0.0917267 1.06061
0.371589 -0.0963123 1.06061
0.36685 -0.0962515 1.06061
0.371651 -0.1009 1.06061
0.366911 -0.100837 1.06061
0.366791 -0.091668 1.06061
0.362059 -0.0916102 1.06061
0.362118 -0.0961915 1.06061
0.357392 -0.0961325 1.06061
0.362178 -0.100775 1.06061
0.357452 -0.100714 1.06061
0.358356 -0.0918147 1.06364
0.353624 -0.0917584 1.06364
0.352674 -0.0960742 1.06061
0.348955 -0.0962912 1.06364
0.352732 -0.100654 1.06061
0.349014 -0.100882 1.06364
0.344293 -0.100823 1.06364
0.349074 -0.105475 1.06364
0.353801 -0.105536 1.06364
0.344352 -0.105414 1.06364
0.340605 -0.105654 1.06667
0.345395 -0.110321 1.06667
0.349136 -0.11007 1.06364
0.340665 -0.110259 1.06667
0.336897 -0.110511 1.0697
0.340728 -0.114866 1.06667
0.344477 -0.114603 1.06364
0.336958 -0.115129 1.0697
0.333168 -0.115393 1.07273
0.337022 -0.119749 1.0697
0.340792 -0.119475 1.06667
0.333231 -0.120024 1.07273
0.329419 -0.1203 1.07576
0.334237 -0.125011 1.07576
0.337087 -0.124372 1.0697
0.330411 -0.125297 1.07879
0.326564 -0.125585 1.08182
0.330477 -0.129959 1.07879
0.334304 -0.129661 1.07576
0.326629 -0.130257 1.08182
0.321859 -0.130192 1.08182
0.326696 -0.134932 1.08182
0.330545 -0.134623 1.07879
0.321924 -0.134865 1.08182
0.318047 -0.135176 1.08485
0.321992 -0.139541 1.08182
0.326765 -0.139611 1.08182
0.318114 -0.139864 1.08485
0.314215 -0.140187 1.08788
0.318183 -0.144554 1.08485
0.322062 -0.14422 1.08182
0.314283 -0.144889 1.08788
0.310361 -0.145224 1.09091
0.314352 -0.149594 1.08788
0.318253 -0.149248 1.08485
0.31043 -0.14994 1.09091
0.305638 -0.149871 1.09091
0.3105 -0.154659 1.09091
0.314423 -0.154301 1.08788
0.305707 -0.154589 1.09091
0.30259 -0.155378 1.09697
0.305778 -0.159309 1.09091
0.310572 -0.159382 1.09091
0.302661 -0.160123 1.09697
0.29785 -0.160052 1.09697
0.302732 -0.164871 1.09697
0.30585 -0.164033 1.09091
0.297921 -0.164799 1.09697
0.294733 -0.165638 1.10303
0.297993 -0.169549 1.09697
0.302806 -0.169623 1.09697
0.294805 -0.170413 1.10303
0.290772 -0.170809 1.10606
0.294878 -0.17519 1.10303
0.298891 -0.174784 1.1
0.290845 -0.175598 1.10606
0.290918 -0.180391 1.10606
0.294953 -0.179972 1.10303
0.287502 -0.171674 1.11212
0.284183 -0.172539 1.11818
0.287573 -0.176487 1.11212
0.285024 -0.177858 1.12121
0.285096 -0.182713 1.12121
0.28843 -0.181799 1.11515
0.287721 -0.186126 1.11212
0.291791 -0.185695 1.10909
0.28517 -0.187572 1.12121
0.286016 -0.192955 1.12424
0.288581 -0.191471 1.11515
0.280957 -0.183135 1.12424
0.280886 -0.178268 1.12424
0.281787 -0.188512 1.12727
0.27747 -0.179159 1.1303
0.277402 -0.174271 1.1303
0.278284 -0.184544 1.13333
0.280816 -0.173405 1.12424
0.277335 -0.169387 1.1303
0.277269 -0.164506 1.1303
0.278356 -0.189452 1.13333
0.279175 -0.194883 1.13636
0.281862 -0.193399 1.12727
0.281938 -0.19829 1.12727
0.286094 -0.197835 1.12424
0.27925 -0.199812 1.13636
0.278582 -0.204199 1.13333
0.282016 -0.203185 1.12727
0.286173 -0.202718 1.12424
0.281337 -0.207525 1.12424
0.286254 -0.207606 1.12424
0.278661 -0.209123 1.13333
0.27591 -0.210721 1.14242
0.277996 -0.213479 1.1303
0.281418 -0.212415 1.12424
0.274525 -0.214543 1.13636
0.273873 -0.218901 1.13333
0.278077 -0.218398 1.1303
0.281501 -0.217309 1.12424
0.278906 -0.22392 1.13333
0.282345 -0.222807 1.12727
0.286507 -0.222294 1.12424
0.282431 -0.227723 1.12727
0.286595 -0.227199 1.12424
0.286421 -0.217394 1.12424
0.289775 -0.216307 1.11818
0.286337 -0.212498 1.12424
0.289862 -0.221183 1.11818
0.28969 -0.211436 1.11818
0.292196 -0.209802 1.10909
0.288821 -0.206009 1.11515
0.293081 -0.215222 1.11212
0.292112 -0.204972 1.10909
0.296166 -0.204496 1.10606
0.292029 -0.200147 1.10909
0.296252 -0.209314 1.10606
0.296082 -0.199683 1.10606
0.288739 -0.201159 1.11515
0.28866 -0.196313 1.11515
0.291948 -0.195326 1.10909
0.296 -0.194873 1.10606
0.291869 -0.190508 1.10909
0.295919 -0.190067 1.10606
0.299124 -0.189105 1.1
0.295841 -0.185265 1.10606
0.299206 -0.193887 1.1
0.299045 -0.184328 1.1
0.303875 -0.184407 1.1
0.298967 -0.179554 1.1
0.303956 -0.189186 1.1
0.302959 -0.179137 1.09697
0.30693 -0.17872 1.09394
0.302882 -0.174378 1.09697
0.30701 -0.183472 1.09394
0.306851 -0.173973 1.09394
0.3108 -0.173569 1.09091
0.305925 -0.16876 1.09091
0.310879 -0.178305 1.09091
0.310722 -0.168837 1.09091
0.314649 -0.168445 1.08788
0.310646 -0.164108 1.09091
0.314727 -0.173166 1.08788
0.314572 -0.163727 1.08788
0.318476 -0.163347 1.08485
0.314497 -0.159013 1.08788
0.319444 -0.168523 1.08788
0.3184 -0.158644 1.08485
0.322282 -0.158277 1.08182
0.318326 -0.153944 1.08485
0.322359 -0.162968 1.08182
0.322207 -0.153588 1.08182
0.326983 -0.153663 1.08182
0.322133 -0.148903 1.08182
0.327059 -0.158353 1.08182
0.326908 -0.148976 1.08182
0.33076 -0.148632 1.07879
0.326835 -0.144292 1.08182
0.330835 -0.153308 1.07879
0.330686 -0.143959 1.07879
0.334516 -0.143628 1.07576
0.330614 -0.13929 1.07879
0.33459 -0.14829 1.07576
0.334443 -0.138969 1.07576
0.338251 -0.13865 1.07273
0.334372 -0.134314 1.07576
0.33928 -0.143702 1.07576
0.33818 -0.134005 1.07273
0.341966 -0.133698 1.0697
0.33811 -0.129364 1.07273
0.343007 -0.138723 1.07273
0.341895 -0.129067 1.0697
0.34566 -0.128771 1.06667
0.340859 -0.124087 1.06667
0.346714 -0.13377 1.0697
0.343627 -0.123449 1.06061
0.346348 -0.122812 1.05455
0.344542 -0.119201 1.06364
0.348409 -0.12811 1.06061
0.348271 -0.118928 1.06061
0.352988 -0.118996 1.06061
0.348205 -0.114341 1.06061
0.353929 -0.114733 1.06364
0.358665 -0.1148 1.06364
0.353864 -0.110133 1.06364
0.357578 -0.109884 1.06061
0.362306 -0.109949 1.06061
0.357514 -0.105298 1.06061
0.362241 -0.105361 1.06061
0.366975 -0.105425 1.06061
0.367041 -0.110016 1.06061
0.371782 -0.110083 1.06061
0.368157 -0.114936 1.06364
0.372914 -0.115006 1.06364
0.371716 -0.10549 1.06061
0.376463 -0.105557 1.06061
0.376531 -0.110151 1.06061
0.381287 -0.110221 1.06061
0.377677 -0.115077 1.06364
0.382447 -0.115148 1.06364
0.381218 -0.105624 1.06061
0.38598 -0.105692 1.06061
0.38605 -0.110291 1.06061
0.391937 -0.110678 1.06364
0.387225 -0.115221 1.06364
0.39201 -0.115295 1.06364
0.391866 -0.106063 1.06364
0.396656 -0.106133 1.06364
0.391797 -0.10145 1.06364
0.396728 -0.11075 1.06364
0.396586 -0.101518 1.06364
0.401384 -0.101587 1.06364
0.396519 -0.096906 1.06364
0.401454 -0.106204 1.06364
0.401315 -0.0969725 1.06364
0.406119 -0.0970399 1.06364
0.40125 -0.0923601 1.06364
0.406188 -0.101657 1.06364
0.406053 -0.0924251 1.06364
0.410863 -0.092491 1.06364
0.405988 -0.0878126 1.06364
0.410931 -0.0971082 1.06364
0.410798 -0.087876 1.06364
0.4168 -0.0881909 1.06667
0.410735 -0.0832632 1.06364
0.415682 -0.0925578 1.06364
0.416736 -0.0835625 1.06667
0.421575 -0.0836254 1.06667
0.416675 -0.0789361 1.06667
0.42164 -0.0882564 1.06667
0.421513 -0.0789965 1.06667
0.427571 -0.0792824 1.0697
0.421454 -0.0743697 1.06667
0.427634 -0.083927 1.0697
0.42751 -0.0746398 1.0697
0.432378 -0.0746995 1.0697
0.426241 -0.0698009 1.06667
0.432439 -0.0793447 1.0697
0.432319 -0.0700563 1.0697
0.437195 -0.0701142 1.0697
0.431038 -0.0652297 1.06667
0.438493 -0.0749718 1.07273
0.437138 -0.0654703 1.0697
0.442021 -0.0655263 1.0697
0.437083 -0.0608281 1.0697
0.443331 -0.0703717 1.07273
0.441966 -0.0608815 1.0697
0.448124 -0.0611082 1.07273
0.441914 -0.0562383 1.0697
0.44818 -0.0657688 1.07273
0.44807 -0.0564492 1.07273
0.452984 -0.0565014 1.07273
0.446754 -0.0516455 1.0697
0.453038 -0.0611631 1.07273
0.451654 -0.0516949 1.0697
0.457856 -0.0518915 1.07273
0.451605 -0.0470496 1.0697
0.459201 -0.0567141 1.07576
0.457807 -0.0472303 1.07273
0.464045 -0.0474119 1.07576
0.464095 -0.0520891 1.07576
0.465455 -0.0569278 1.07879
0.470425 -0.0569823 1.07879
0.470321 -0.0475943 1.07879
0.470273 -0.0429025 1.07879
0.470481 -0.0616787 1.07879
0.465511 -0.0616213 1.07879
0.459256 -0.0613917 1.07576
0.465569 -0.0663166 1.07879
0.471862 -0.0665633 1.08182
0.459313 -0.066071 1.07576
0.453095 -0.0658265 1.07273
0.459374 -0.0707521 1.07576
0.465631 -0.0710137 1.07879
0.454435 -0.0706908 1.07576
0.449505 -0.0706302 1.07576
0.454497 -0.075371 1.07576
0.459437 -0.0754351 1.07576
0.449566 -0.0753077 1.07576
0.443392 -0.0750333 1.07273
0.44963 -0.0799871 1.07576
0.454562 -0.0800531 1.07576
0.443455 -0.0796968 1.07273
0.438555 -0.0796327 1.07273
0.443521 -0.0843624 1.07273
0.449697 -0.0846685 1.07576
0.43862 -0.0842956 1.07273
0.432503 -0.0839918 1.0697
0.438688 -0.0889606 1.07273
0.443589 -0.08903 1.07273
0.43257 -0.088641 1.0697
0.426488 -0.0883227 1.06667
0.431413 -0.0930281 1.06667
0.437519 -0.0933633 1.0697
0.426556 -0.0929583 1.06667
0.421707 -0.0928894 1.06667
0.425415 -0.0973189 1.06364
0.431485 -0.0976685 1.06667
0.421777 -0.0975248 1.06667
0.415751 -0.0971775 1.06364
0.42065 -0.101872 1.06364
0.425487 -0.101946 1.06364
0.415822 -0.101799 1.06364
0.411001 -0.101728 1.06364
0.415895 -0.106424 1.06364
0.420725 -0.106499 1.06364
0.411073 -0.10635 1.06364
0.40626 -0.106276 1.06364
0.411148 -0.110974 1.06364
0.415971 -0.111051 1.06364
0.406334 -0.110898 1.06364
0.401527 -0.110824 1.06364
0.40641 -0.115523 1.06364
0.411226 -0.115601 1.06364
0.401602 -0.115446 1.06364
0.396802 -0.11537 1.06364
0.40168 -0.12007 1.06364
0.406489 -0.12015 1.06364
0.396879 -0.119992 1.06364
0.392085 -0.119915 1.06364
0.396958 -0.124617 1.06364
0.40176 -0.124698 1.06364
0.392163 -0.124537 1.06364
0.387376 -0.124459 1.06364
0.392243 -0.129163 1.06364
0.397039 -0.129245 1.06364
0.387455 -0.129082 1.06364
0.387299 -0.119839 1.06364
0.382521 -0.119764 1.06364
0.382596 -0.124381 1.06364
0.377824 -0.124305 1.06364
0.382674 -0.129002 1.06364
0.377749 -0.11969 1.06364
0.372985 -0.119617 1.06364
0.382754 -0.133626 1.06364
0.387536 -0.133708 1.06364
0.379056 -0.133925 1.06667
0.379138 -0.138563 1.06667
0.382837 -0.138252 1.06364
0.374356 -0.138481 1.06667
0.36958 -0.1384 1.06667
0.374438 -0.143119 1.06667
0.379222 -0.143203 1.06667
0.369662 -0.143036 1.06667
0.364892 -0.142954 1.06667
0.369745 -0.147675 1.06667
0.374523 -0.14776 1.06667
0.364974 -0.147591 1.06667
0.364812 -0.13832 1.06667
0.361073 -0.138634 1.0697
0.361152 -0.143279 1.0697
0.356383 -0.143199 1.0697
0.361234 -0.147927 1.0697
0.356463 -0.147845 1.0697
0.356305 -0.138557 1.0697
0.351543 -0.138481 1.0697
0.35162 -0.143121 1.0697
0.350472 -0.133464 1.06667
0.34777 -0.138797 1.07273
0.346863 -0.143044 1.0697
0.343082 -0.143373 1.07273
0.343159 -0.148025 1.07273
0.347924 -0.148104 1.07273
0.339356 -0.148366 1.07576
0.339434 -0.153033 1.07576
0.343238 -0.152681 1.07273
0.33561 -0.153386 1.07879
0.335688 -0.158067 1.07879
0.339514 -0.157703 1.07576
0.330913 -0.157988 1.07879
0.330992 -0.16267 1.07879
0.335769 -0.162751 1.07879
0.327137 -0.163047 1.08182
0.327218 -0.167744 1.08182
0.332003 -0.167826 1.08182
0.322438 -0.167664 1.08182
0.323422 -0.172845 1.08485
0.3273 -0.172445 1.08182
0.319524 -0.173246 1.08788
0.319606 -0.177973 1.08788
0.323505 -0.177561 1.08485
0.315685 -0.178386 1.09091
0.315768 -0.183128 1.09091
0.32058 -0.183212 1.09091
0.311825 -0.183553 1.09394
0.311908 -0.18831 1.09394
0.315852 -0.187873 1.09091
0.307092 -0.188226 1.09394
0.307176 -0.192985 1.09394
0.311993 -0.19307 1.09394
0.304039 -0.19397 1.1
0.304124 -0.198757 1.1
0.307261 -0.197747 1.09394
0.299289 -0.198672 1.1
0.300199 -0.204022 1.10303
0.30421 -0.203548 1.1
0.3082 -0.203075 1.09697
0.304299 -0.208343 1.1
0.30829 -0.207859 1.09697
0.300286 -0.208828 1.10303
0.300375 -0.213639 1.10303
0.305227 -0.213729 1.10303
0.297151 -0.214723 1.10909
0.297241 -0.219563 1.10909
0.300465 -0.218454 1.10303
0.293169 -0.220073 1.11212
0.293259 -0.224928 1.11212
0.297332 -0.224407 1.10909
0.289951 -0.226063 1.11818
0.290042 -0.230948 1.11818
0.293351 -0.229788 1.11212
0.287457 -0.232734 1.12727
0.287548 -0.237661 1.12727
0.29092 -0.236476 1.12121
0.291015 -0.241383 1.12121
0.29434 -0.240174 1.11515
0.287642 -0.242593 1.12727
0.28346 -0.243152 1.1303
0.287737 -0.24753 1.12727
0.291111 -0.246295 1.12121
0.283554 -0.2481 1.1303
0.283369 -0.238208 1.1303
0.283279 -0.23327 1.1303
0.280484 -0.230085 1.13939
0.281317 -0.235682 1.14242
0.276153 -0.225632 1.14242
0.278435 -0.232446 1.15152
0.281407 -0.240672 1.14242
0.277877 -0.241859 1.14848
0.277967 -0.246878 1.14848
0.281498 -0.245666 1.14242
0.28159 -0.250666 1.14242
0.278792 -0.252567 1.15152
0.279619 -0.258287 1.15455
0.283179 -0.257027 1.14848
0.281781 -0.26068 1.14242
0.283649 -0.253053 1.1303
0.287834 -0.252471 1.12727
0.291209 -0.251212 1.12121
0.287932 -0.257418 1.12727
0.291309 -0.256134 1.12121
0.282986 -0.257319 1.12727
0.282323 -0.261564 1.12424
0.287258 -0.261664 1.12424
0.278888 -0.262875 1.1303
0.283185 -0.267224 1.12727
0.288135 -0.267327 1.12727
0.283287 -0.272185 1.12727
0.288239 -0.272289 1.12727
0.292408 -0.271663 1.12424
0.28912 -0.278002 1.1303
0.293304 -0.277364 1.12727
0.284153 -0.277896 1.1303
0.292303 -0.266712 1.12424
0.296449 -0.266098 1.12121
0.292199 -0.261766 1.12424
0.296556 -0.271038 1.12121
0.296343 -0.261164 1.12121
0.300466 -0.260564 1.11818
0.294638 -0.254851 1.11515
0.300574 -0.265486 1.11818
