# .PCD v0.7 - Point Cloud Data file format
VERSION 0.7
FIELDS x y z
SIZE 4 4 4
TYPE F F F
COUNT 1 1 1
WIDTH 1668
HEIGHT 1
VIEWPOINT 0 0 0 1 0 0 0
POINTS 1668
DATA ascii
-0.168109 -0.15797 0.90303
-0.168153 -0.161872 0.90303
-0.164815 -0.162371 0.906061
-0.161454 -0.162871 0.909091
-0.164859 -0.166289 0.906061
-0.161497 -0.166801 0.909091
-0.168198 -0.165777 0.90303
-0.168243 -0.169686 0.90303
-0.164904 -0.17021 0.906061
-0.161541 -0.170734 0.909091
-0.165501 -0.174716 0.909091
-0.161586 -0.17467 0.909091
-0.16829 -0.173598 0.90303
-0.171607 -0.173063 0.9
-0.168338 -0.177513 0.90303
-0.165548 -0.178657 0.909091
-0.172234 -0.177562 0.90303
-0.175541 -0.177016 0.9
-0.172283 -0.181482 0.90303
-0.168951 -0.182041 0.906061
-0.175592 -0.180924 0.9
-0.178877 -0.180366 0.89697
-0.175644 -0.184835 0.9
-0.172334 -0.185405 0.90303
-0.17893 -0.184265 0.89697
-0.182811 -0.184319 0.89697
-0.179589 -0.188803 0.9
-0.176288 -0.189385 0.90303
-0.182866 -0.188223 0.89697
-0.186751 -0.188279 0.89697
-0.182923 -0.19213 0.89697
-0.179644 -0.192723 0.9
-0.186809 -0.192187 0.89697
-0.190054 -0.191597 0.893939
-0.187499 -0.196762 0.9
-0.183598 -0.196703 0.9
-0.1797 -0.196646 0.9
-0.184275 -0.201307 0.90303
-0.180363 -0.201248 0.90303
-0.176454 -0.201191 0.90303
-0.181027 -0.205881 0.906061
-0.177103 -0.205822 0.906061
-0.184335 -0.205252 0.90303
-0.176397 -0.197252 0.90303
-0.173071 -0.197859 0.906061
-0.176342 -0.193316 0.90303
-0.173126 -0.20181 0.906061
-0.172439 -0.193263 0.90303
-0.169103 -0.193858 0.906061
-0.172386 -0.189332 0.90303
-0.169156 -0.197805 0.906061
-0.169052 -0.189916 0.906061
-0.165694 -0.1905 0.909091
-0.169001 -0.185976 0.906061
-0.165745 -0.194455 0.909091
-0.165645 -0.186549 0.909091
-0.161725 -0.1865 0.909091
-0.165596 -0.182601 0.909091
-0.162313 -0.191085 0.912121
-0.161678 -0.182553 0.909091
-0.158814 -0.183724 0.915152
-0.161631 -0.17861 0.909091
-0.158861 -0.187696 0.915152
-0.158769 -0.179755 0.915152
-0.155344 -0.180306 0.918182
-0.158724 -0.17579 0.915152
-0.155901 -0.184895 0.921212
-0.1553 -0.176328 0.918182
-0.151853 -0.176867 0.921212
-0.155257 -0.172354 0.918182
-0.152395 -0.181452 0.924242
-0.151811 -0.172881 0.921212
-0.158155 -0.171259 0.912121
-0.158112 -0.167314 0.912121
-0.155215 -0.168384 0.918182
-0.15177 -0.168898 0.921212
-0.154662 -0.163874 0.915152
-0.151231 -0.164376 0.918182
-0.15807 -0.163372 0.912121
-0.157504 -0.158904 0.909091
-0.15411 -0.159393 0.912121
-0.151191 -0.160413 0.918182
-0.154071 -0.155458 0.912121
-0.151153 -0.156453 0.918182
-0.157464 -0.154981 0.909091
-0.157425 -0.151062 0.909091
-0.154032 -0.151527 0.912121
-0.150617 -0.151993 0.915152
-0.153995 -0.147598 0.912121
-0.15058 -0.148052 0.915152
-0.157386 -0.147145 0.909091
-0.157349 -0.143231 0.909091
-0.153958 -0.143672 0.912121
-0.150544 -0.144113 0.915152
-0.153923 -0.139749 0.912121
-0.150509 -0.140178 0.915152
-0.157312 -0.13932 0.909091
-0.157276 -0.135412 0.909091
-0.153888 -0.135829 0.912121
-0.150475 -0.136246 0.915152
-0.153853 -0.131911 0.912121
-0.150442 -0.132316 0.915152
-0.157241 -0.131507 0.909091
-0.157207 -0.127604 0.909091
-0.15382 -0.127996 0.912121
-0.150409 -0.128389 0.915152
-0.153787 -0.124084 0.912121
-0.150377 -0.124464 0.915152
-0.157174 -0.123704 0.909091
-0.157141 -0.119807 0.909091
-0.153245 -0.119775 0.909091
-0.150346 -0.120542 0.915152
-0.153214 -0.115881 0.909091
-0.150316 -0.116623 0.915152
-0.156586 -0.115525 0.906061
-0.156555 -0.111645 0.906061
-0.153184 -0.111989 0.909091
-0.149789 -0.112333 0.912121
-0.153155 -0.108099 0.909091
-0.149761 -0.108431 0.912121
-0.156002 -0.107407 0.90303
-0.155973 -0.103545 0.90303
-0.152616 -0.103864 0.906061
-0.149733 -0.104531 0.912121
-0.152588 -0.0999917 0.906061
-0.149209 -0.100299 0.909091
-0.155421 -0.0993502 0.9
-0.155394 -0.0955051 0.9
-0.152562 -0.0961215 0.906061
-0.149183 -0.0964169 0.909091
-0.152536 -0.0922534 0.906061
-0.149157 -0.0925366 0.909091
-0.155368 -0.091662 0.9
-0.155342 -0.0878209 0.9
-0.152001 -0.0880916 0.90303
-0.149133 -0.0886583 0.909091
-0.151976 -0.0842403 0.90303
-0.149109 -0.0847819 0.909091
-0.145708 -0.0850414 0.912121
-0.149086 -0.0809074 0.909091
-0.145731 -0.0889299 0.912121
-0.145685 -0.0811547 0.912121
-0.142261 -0.0814025 0.915152
-0.14518 -0.0770131 0.909091
-0.142754 -0.0855838 0.918182
-0.14224 -0.0775054 0.915152
-0.138793 -0.0777415 0.918182
-0.14222 -0.0736102 0.915152
-0.139272 -0.0819202 0.921212
-0.138773 -0.073834 0.918182
-0.135302 -0.0740584 0.921212
-0.138754 -0.0699283 0.918182
-0.135322 -0.077978 0.921212
-0.135284 -0.0701404 0.921212
-0.136156 -0.0666598 0.927273
-0.132637 -0.06686 0.930303
-0.132222 -0.0705836 0.927273
-0.13262 -0.0629073 0.930303
-0.135787 -0.0821688 0.924242
-0.136699 -0.0866696 0.930303
-0.139293 -0.0858441 0.921212
-0.139315 -0.08977 0.921212
-0.142777 -0.0894974 0.918182
-0.1428 -0.093413 0.918182
-0.139338 -0.0936977 0.921212
-0.145755 -0.0928204 0.912121
-0.14578 -0.0967129 0.912121
-0.142825 -0.0973306 0.918182
-0.139362 -0.0976275 0.921212
-0.14285 -0.10125 0.918182
-0.145805 -0.100607 0.912121
-0.146316 -0.104851 0.915152
-0.142875 -0.105172 0.918182
-0.139869 -0.10584 0.924242
-0.142902 -0.109096 0.918182
-0.139895 -0.10979 0.924242
-0.146343 -0.108763 0.915152
-0.139844 -0.101893 0.924242
-0.13679 -0.102537 0.930303
-0.136814 -0.106509 0.930303
-0.136766 -0.0985672 0.930303
-0.134094 -0.099507 0.939394
-0.136743 -0.0945993 0.930303
-0.133685 -0.103181 0.936364
-0.134072 -0.0955011 0.939394
-0.13405 -0.0914972 0.939394
-0.13672 -0.0906335 0.930303
-0.133164 -0.0869309 0.933333
-0.137285 -0.110843 0.933333
-0.140381 -0.114114 0.927273
-0.143401 -0.113395 0.921212
-0.140408 -0.118081 0.927273
-0.143428 -0.117337 0.921212
-0.146884 -0.11698 0.918182
-0.144401 -0.122079 0.927273
-0.147399 -0.12131 0.921212
-0.146856 -0.11305 0.918182
-0.147429 -0.125257 0.921212
-0.14746 -0.129207 0.921212
-0.144933 -0.130451 0.930303
-0.141413 -0.130845 0.933333
-0.144903 -0.126463 0.930303
-0.14402 -0.133566 0.924242
-0.140525 -0.133972 0.927273
-0.141383 -0.126845 0.933333
-0.138285 -0.12764 0.939394
-0.140895 -0.122449 0.930303
-0.141015 -0.138403 0.930303
-0.144052 -0.137533 0.924242
-0.147525 -0.137114 0.921212
-0.144085 -0.141503 0.924242
-0.140587 -0.141934 0.927273
-0.147073 -0.140608 0.918182
-0.147007 -0.132721 0.918182
-0.147107 -0.144556 0.918182
-0.143645 -0.144999 0.921212
-0.14062 -0.145919 0.927273
-0.144625 -0.149941 0.927273
-0.147627 -0.148996 0.921212
-0.147663 -0.152962 0.921212
-0.1477 -0.156932 0.921212
-0.147737 -0.160904 0.921212
-0.148261 -0.165422 0.924242
-0.145243 -0.166468 0.930303
-0.148787 -0.169969 0.927273
-0.145754 -0.171041 0.933333
-0.145205 -0.162454 0.930303
-0.142598 -0.164005 0.939394
-0.145168 -0.158444 0.930303
-0.142174 -0.167515 0.936364
-0.138609 -0.168021 0.939394
-0.142672 -0.172113 0.939394
-0.13902 -0.164498 0.942424
-0.139432 -0.160952 0.945455
-0.142562 -0.159956 0.939394
-0.138951 -0.156378 0.942424
-0.138471 -0.151833 0.939394
-0.14271 -0.176172 0.939394
-0.145793 -0.175074 0.933333
-0.148827 -0.173977 0.927273
-0.145833 -0.179111 0.933333
-0.148868 -0.177989 0.927273
-0.14891 -0.182004 0.927273
-0.145874 -0.183152 0.933333
-0.149439 -0.186631 0.930303
-0.152938 -0.186066 0.927273
-0.152983 -0.190089 0.927273
-0.149483 -0.190666 0.930303
-0.155947 -0.188892 0.921212
-0.155993 -0.192894 0.921212
-0.158908 -0.191672 0.915152
-0.159483 -0.196299 0.918182
-0.156554 -0.197546 0.924242
-0.162902 -0.195701 0.915152
-0.162952 -0.199685 0.915152
-0.159532 -0.200296 0.918182
-0.166349 -0.199075 0.912121
-0.166401 -0.203051 0.912121
-0.163004 -0.203673 0.915152
-0.169776 -0.20243 0.909091
-0.16983 -0.206398 0.909091
-0.165902 -0.206343 0.909091
-0.173182 -0.205765 0.906061
-0.173239 -0.209725 0.906061
-0.169886 -0.210369 0.909091
-0.177161 -0.209783 0.906061
-0.181086 -0.209842 0.906061
-0.177221 -0.213747 0.906061
-0.173297 -0.213688 0.906061
-0.181147 -0.213808 0.906061
-0.185077 -0.21387 0.906061
-0.181209 -0.217777 0.906061
-0.177281 -0.217716 0.906061
-0.18514 -0.21784 0.906061
-0.184396 -0.209201 0.90303
-0.188377 -0.213218 0.90303
-0.188442 -0.217176 0.90303
-0.192366 -0.217242 0.90303
-0.18914 -0.221881 0.906061
-0.185204 -0.221815 0.906061
-0.18527 -0.225795 0.906061
-0.181336 -0.225729 0.906061
-0.182008 -0.23048 0.909091
-0.181272 -0.221751 0.906061
-0.177936 -0.22243 0.909091
-0.177999 -0.22642 0.909091
-0.174057 -0.226358 0.909091
-0.178062 -0.230415 0.909091
-0.1747 -0.231119 0.912121
-0.173996 -0.222368 0.909091
-0.170059 -0.222308 0.909091
-0.173936 -0.218383 0.909091
-0.170686 -0.227051 0.912121
-0.170001 -0.218324 0.909091
-0.166622 -0.218994 0.912121
-0.169943 -0.214345 0.909091
-0.167233 -0.223731 0.915152
-0.166565 -0.215002 0.912121
-0.165956 -0.210313 0.909091
-0.16311 -0.211661 0.915152
-0.159686 -0.212309 0.918182
-0.163056 -0.207665 0.915152
-0.163704 -0.216375 0.918182
-0.160266 -0.217035 0.921212
-0.159634 -0.2083 0.918182
-0.156702 -0.209624 0.924242
-0.159583 -0.204296 0.918182
-0.156652 -0.205594 0.924242
-0.15317 -0.206219 0.927273
-0.156602 -0.201568 0.924242
-0.153219 -0.210261 0.927273
-0.153122 -0.202181 0.927273
-0.150106 -0.203455 0.933333
-0.153575 -0.198794 0.930303
-0.150153 -0.207519 0.933333
-0.149572 -0.198748 0.930303
-0.146994 -0.200644 0.939394
-0.149527 -0.194705 0.930303
-0.146565 -0.204069 0.936364
-0.14695 -0.196563 0.939394
-0.153529 -0.19475 0.930303
-0.146906 -0.192485 0.939394
-0.143879 -0.201895 0.945455
-0.143836 -0.197788 0.945455
-0.143462 -0.205345 0.942424
-0.143507 -0.209447 0.942424
-0.143552 -0.213552 0.942424
-0.146658 -0.212225 0.936364
-0.146611 -0.208145 0.936364
-0.150201 -0.211586 0.933333
-0.146705 -0.216309 0.936364
-0.143599 -0.217662 0.942424
-0.150249 -0.215658 0.933333
-0.153269 -0.214307 0.927273
-0.150299 -0.219734 0.933333
-0.146754 -0.220398 0.936364
-0.153821 -0.219071 0.930303
-0.156805 -0.217696 0.924242
-0.153873 -0.223139 0.930303
-0.15035 -0.223814 0.933333
-0.156858 -0.221738 0.924242
-0.156753 -0.213658 0.924242
-0.160848 -0.221792 0.924242
-0.157426 -0.226525 0.927273
-0.153925 -0.227211 0.930303
-0.160903 -0.225839 0.924242
-0.163816 -0.224415 0.918182
-0.160959 -0.229891 0.924242
-0.157481 -0.230589 0.927273
-0.164414 -0.229195 0.921212
-0.16376 -0.220393 0.918182
-0.167292 -0.227745 0.915152
-0.164473 -0.233239 0.921212
-0.161017 -0.233947 0.924242
-0.167351 -0.231764 0.915152
-0.171314 -0.231825 0.915152
-0.167966 -0.236567 0.918182
-0.164532 -0.237287 0.921212
-0.171377 -0.235848 0.915152
-0.174764 -0.235131 0.912121
-0.17144 -0.239877 0.915152
-0.168028 -0.240608 0.918182
-0.174828 -0.239147 0.912121
-0.178193 -0.238418 0.909091
-0.174894 -0.243168 0.912121
-0.171504 -0.24391 0.915152
-0.17826 -0.242427 0.909091
-0.178127 -0.234414 0.909091
-0.178923 -0.247261 0.912121
-0.174961 -0.247193 0.912121
-0.17157 -0.247948 0.915152
-0.17561 -0.252058 0.915152
-0.172204 -0.252825 0.918182
-0.178993 -0.251293 0.912121
-0.179063 -0.255329 0.912121
-0.175679 -0.256107 0.915152
-0.172272 -0.256886 0.918182
-0.17575 -0.260161 0.915152
-0.172341 -0.260952 0.918182
-0.179135 -0.259371 0.912121
-0.179208 -0.263417 0.912121
-0.175821 -0.26422 0.915152
-0.18318 -0.263492 0.912121
-0.183256 -0.267545 0.912121
-0.179878 -0.268358 0.915152
-0.175894 -0.268284 0.915152
-0.179953 -0.272428 0.915152
-0.175968 -0.272353 0.915152
-0.183333 -0.271603 0.912121
-0.18003 -0.276504 0.915152
-0.176042 -0.276428 0.915152
-0.180108 -0.280586 0.915152
-0.176702 -0.281437 0.918182
-0.172702 -0.281361 0.918182
-0.176779 -0.285536 0.918182
-0.172777 -0.285459 0.918182
-0.180187 -0.284673 0.915152
-0.172628 -0.277268 0.918182
-0.169189 -0.27811 0.921212
-0.172554 -0.273181 0.918182
-0.169262 -0.282215 0.921212
-0.169117 -0.274011 0.921212
-0.165657 -0.274842 0.924242
-0.169047 -0.269917 0.921212
-0.165727 -0.278953 0.924242
-0.165588 -0.270735 0.924242
-0.172482 -0.269099 0.918182
-0.172411 -0.265023 0.918182
-0.168977 -0.265828 0.921212
-0.16552 -0.266634 0.924242
-0.168909 -0.261744 0.921212
-0.165453 -0.262538 0.924242
-0.161974 -0.263333 0.927273
-0.164845 -0.2576 0.921212
-0.162039 -0.267441 0.927273
-0.16191 -0.25923 0.927273
-0.168842 -0.257666 0.921212
-0.16822 -0.252758 0.918182
-0.164781 -0.253528 0.921212
-0.161317 -0.254298 0.924242
-0.164717 -0.24946 0.921212
-0.161255 -0.250218 0.924242
-0.168155 -0.248703 0.918182
-0.167536 -0.243846 0.915152
-0.164654 -0.245398 0.921212
-0.161194 -0.246144 0.924242
-0.164593 -0.24134 0.921212
-0.161134 -0.242074 0.924242
-0.157652 -0.242808 0.927273
-0.161075 -0.238008 0.924242
-0.15771 -0.246891 0.927273
-0.157594 -0.23873 0.927273
-0.154089 -0.239454 0.930303
-0.157537 -0.234657 0.927273
-0.154145 -0.243544 0.930303
-0.154034 -0.235368 0.930303
-0.150995 -0.236847 0.936364
-0.153979 -0.231287 0.930303
-0.15105 -0.240958 0.936364
-0.150942 -0.232741 0.936364
-0.147855 -0.234194 0.942424
-0.150401 -0.227898 0.933333
-0.147907 -0.238327 0.942424
-0.146853 -0.228587 0.936364
-0.143743 -0.230017 0.942424
-0.146803 -0.22449 0.936364
-0.144256 -0.234896 0.945455
-0.143694 -0.225894 0.942424
-0.140985 -0.228025 0.951515
-0.143646 -0.221776 0.942424
-0.140584 -0.231447 0.948485
-0.140938 -0.223868 0.951515
-0.136892 -0.227978 0.951515
-0.136938 -0.232139 0.951515
-0.141082 -0.236352 0.951515
-0.141131 -0.240523 0.951515
-0.144306 -0.239041 0.945455
-0.144358 -0.24319 0.945455
-0.14796 -0.242464 0.942424
-0.147538 -0.245812 0.939394
-0.144411 -0.247344 0.945455
-0.151105 -0.245074 0.936364
-0.151161 -0.249195 0.936364
-0.154203 -0.247639 0.930303
-0.154261 -0.251738 0.930303
-0.151707 -0.25414 0.939394
-0.158286 -0.251798 0.930303
-0.158346 -0.255904 0.930303
-0.154823 -0.256676 0.933333
-0.151765 -0.258284 0.939394
-0.155386 -0.261646 0.936364
-0.158924 -0.260861 0.933333
-0.158987 -0.26499 0.933333
-0.156454 -0.267508 0.942424
-0.152864 -0.268306 0.945455
-0.156014 -0.270808 0.939394
-0.152926 -0.272492 0.945455
-0.159051 -0.269124 0.933333
-0.152314 -0.263279 0.942424
-0.149192 -0.264913 0.948485
-0.149728 -0.269966 0.951515
-0.149134 -0.260725 0.948485
-0.148601 -0.255722 0.945455
-0.145445 -0.257306 0.951515
-0.142239 -0.25889 0.957576
-0.144464 -0.251503 0.945455
-0.145964 -0.262334 0.954545
-0.141735 -0.253868 0.954545
-0.148069 -0.250752 0.942424
-0.141683 -0.24967 0.954545
-0.141631 -0.245477 0.954545
-0.142293 -0.263111 0.957576
-0.14602 -0.266548 0.954545
-0.143249 -0.269029 0.963636
-0.146541 -0.271626 0.957576
-0.146136 -0.274991 0.954545
-0.146195 -0.27922 0.954545
-0.146256 -0.283455 0.954545
-0.149433 -0.281717 0.948485
-0.149372 -0.277508 0.948485
-0.149496 -0.285931 0.948485
-0.152498 -0.275796 0.942424
-0.156077 -0.274973 0.939394
-0.152561 -0.279979 0.942424
-0.156142 -0.279143 0.939394
-0.149311 -0.273304 0.948485
-0.159183 -0.277408 0.933333
-0.156208 -0.28332 0.939394
-0.152625 -0.284168 0.942424
-0.15925 -0.281558 0.933333
-0.159116 -0.273263 0.933333
-0.162106 -0.271555 0.927273
-0.162173 -0.275674 0.927273
-0.162242 -0.279798 0.927273
-0.162311 -0.283928 0.927273
-0.165798 -0.283071 0.924242
-0.166414 -0.288136 0.927273
-0.162913 -0.289005 0.930303
-0.169893 -0.287268 0.924242
-0.169968 -0.291397 0.924242
-0.167032 -0.293233 0.930303
-0.172854 -0.289563 0.918182
-0.176858 -0.289641 0.918182
-0.172932 -0.293673 0.918182
-0.170602 -0.296502 0.927273
-0.176938 -0.293752 0.918182
-0.180349 -0.292864 0.915152
-0.177019 -0.297869 0.918182
-0.173582 -0.298771 0.921212
-0.180432 -0.296968 0.915152
-0.180267 -0.288765 0.915152
-0.183654 -0.287891 0.912121
-0.184347 -0.292947 0.915152
-0.187725 -0.292062 0.912121
-0.184432 -0.297052 0.915152
-0.187812 -0.296155 0.912121
-0.191805 -0.296243 0.912121
-0.187899 -0.300254 0.912121
-0.184518 -0.301164 0.915152
-0.191895 -0.300344 0.912121
-0.195894 -0.300435 0.912121
-0.191986 -0.30445 0.912121
-0.187989 -0.30436 0.912121
-0.195987 -0.304543 0.912121
-0.196082 -0.308658 0.912121
-0.192079 -0.308563 0.912121
-0.188704 -0.309496 0.915152
-0.192173 -0.312683 0.912121
-0.188796 -0.313628 0.915152
-0.196178 -0.312778 0.912121
-0.199522 -0.311837 0.909091
-0.196275 -0.316905 0.912121
-0.192907 -0.317861 0.915152
-0.199621 -0.315951 0.909091
-0.199722 -0.320073 0.909091
-0.196374 -0.321039 0.912121
-0.193004 -0.322007 0.915152
-0.197127 -0.32626 0.915152
-0.193102 -0.326159 0.915152
-0.20049 -0.325281 0.912121
-0.20383 -0.324305 0.909091
-0.200594 -0.32943 0.912121
-0.197229 -0.33042 0.915152
-0.204615 -0.329536 0.912121
-0.207947 -0.328549 0.909091
-0.204723 -0.333693 0.912121
-0.201366 -0.334694 0.915152
-0.208057 -0.332694 0.909091
-0.212075 -0.332806 0.909091
-0.208169 -0.336846 0.909091
-0.204833 -0.337857 0.912121
-0.212189 -0.336959 0.909091
-0.216213 -0.337075 0.909091
-0.212304 -0.34112 0.909091
-0.208976 -0.342141 0.912121
-0.216331 -0.341237 0.909091
-0.219627 -0.340219 0.906061
-0.216451 -0.345407 0.909091
-0.212422 -0.345287 0.909091
-0.219749 -0.344377 0.906061
-0.219507 -0.336069 0.906061
-0.223526 -0.33619 0.906061
-0.223648 -0.340342 0.906061
-0.226912 -0.339328 0.90303
-0.223772 -0.344501 0.906061
-0.227038 -0.343474 0.90303
-0.226787 -0.335188 0.90303
-0.230928 -0.339454 0.90303
-0.231057 -0.343603 0.90303
-0.23508 -0.343734 0.90303
-0.235213 -0.347892 0.90303
-0.231188 -0.347759 0.90303
-0.227167 -0.347629 0.90303
-0.231321 -0.351923 0.90303
-0.227297 -0.351791 0.90303
-0.224026 -0.352841 0.906061
-0.227429 -0.35596 0.90303
-0.224156 -0.357023 0.906061
-0.223899 -0.348667 0.906061
-0.219872 -0.348541 0.906061
-0.219998 -0.352714 0.906061
-0.216695 -0.353768 0.909091
-0.220125 -0.356894 0.906061
-0.21682 -0.35796 0.909091
-0.216572 -0.349584 0.909091
-0.213249 -0.350628 0.912121
-0.21337 -0.354824 0.912121
-0.210022 -0.355882 0.915152
-0.213493 -0.359029 0.912121
-0.210142 -0.360099 0.915152
-0.209903 -0.351673 0.915152
-0.205852 -0.351556 0.915152
-0.209091 -0.346321 0.912121
-0.205969 -0.355764 0.915152
-0.205056 -0.346206 0.912121
-0.201693 -0.347244 0.915152
-0.204944 -0.342028 0.912121
-0.202474 -0.352606 0.918182
-0.201583 -0.343053 0.915152
-0.197545 -0.342945 0.915152
-0.201474 -0.33887 0.915152
-0.197653 -0.347134 0.915152
-0.197438 -0.338763 0.915152
-0.194046 -0.33978 0.918182
-0.197333 -0.334588 0.915152
-0.194151 -0.343974 0.918182
-0.193943 -0.335593 0.918182
-0.189903 -0.335491 0.918182
-0.193842 -0.331413 0.918182
-0.190004 -0.339677 0.918182
-0.189804 -0.331313 0.918182
-0.186383 -0.332309 0.921212
-0.189706 -0.327141 0.918182
-0.18648 -0.3365 0.921212
-0.186287 -0.328124 0.921212
-0.182845 -0.329109 0.924242
-0.186193 -0.323947 0.921212
-0.182939 -0.333306 0.924242
-0.182752 -0.32492 0.924242
-0.188984 -0.32191 0.915152
-0.188889 -0.317766 0.915152
-0.186099 -0.319777 0.921212
-0.182062 -0.319685 0.921212
-0.185396 -0.314574 0.918182
-0.181374 -0.314484 0.918182
-0.178526 -0.316472 0.924242
-0.181286 -0.310342 0.918182
-0.178613 -0.320647 0.924242
-0.177854 -0.311279 0.921212
-0.184694 -0.309406 0.915152
-0.184605 -0.305282 0.915152
-0.180601 -0.305195 0.915152
-0.177769 -0.307131 0.921212
-0.180516 -0.301079 0.915152
-0.177101 -0.301992 0.918182
-0.173663 -0.302906 0.921212
-0.173744 -0.307047 0.921212
-0.173827 -0.311195 0.921212
-0.170759 -0.304818 0.927273
-0.167805 -0.306732 0.933333
-0.17068 -0.300657 0.927273
-0.171397 -0.309995 0.930303
-0.167884 -0.310925 0.933333
-0.167728 -0.302544 0.933333
-0.163663 -0.302468 0.933333
-0.167107 -0.297395 0.930303
-0.16427 -0.30765 0.936364
-0.163589 -0.298288 0.933333
-0.160564 -0.300152 0.939394
-0.163515 -0.294114 0.933333
-0.160637 -0.304358 0.939394
-0.159975 -0.294997 0.936364
-0.156411 -0.295882 0.939394
-0.159904 -0.290817 0.936364
-0.156985 -0.301049 0.942424
-0.156342 -0.291689 0.939394
-0.152756 -0.292562 0.942424
-0.156274 -0.287501 0.939394
-0.152823 -0.296768 0.942424
-0.15269 -0.288362 0.942424
-0.159318 -0.285714 0.933333
-0.14969 -0.298609 0.948485
-0.152891 -0.300979 0.942424
-0.149756 -0.302847 0.948485
-0.149624 -0.294377 0.948485
-0.146907 -0.297134 0.957576
-0.14956 -0.290152 0.948485
-0.146506 -0.300452 0.954545
-0.146844 -0.292869 0.957576
-0.147246 -0.289522 0.960606
-0.145641 -0.302781 0.948485
-0.146172 -0.308004 0.951515
-0.149824 -0.30709 0.948485
-0.15296 -0.305197 0.942424
-0.149892 -0.31134 0.948485
-0.145773 -0.311272 0.948485
-0.15303 -0.30942 0.942424
-0.156623 -0.308497 0.939394
-0.153594 -0.314659 0.945455
-0.149962 -0.315596 0.948485
-0.157202 -0.313723 0.942424
-0.156551 -0.304286 0.939394
-0.160711 -0.30857 0.939394
-0.160786 -0.312789 0.939394
-0.164347 -0.311856 0.936364
-0.164425 -0.316068 0.936364
-0.160862 -0.317013 0.939394
-0.167964 -0.315125 0.933333
-0.171479 -0.314183 0.930303
-0.168045 -0.319331 0.933333
-0.165036 -0.321323 0.939394
-0.171562 -0.318376 0.930303
-0.175055 -0.317423 0.927273
-0.171646 -0.322576 0.930303
-0.168127 -0.323543 0.933333
-0.175141 -0.321611 0.927273
-0.175801 -0.32687 0.930303
-0.171731 -0.326783 0.930303
-0.178702 -0.324829 0.924242
-0.178793 -0.329017 0.924242
-0.17589 -0.331084 0.930303
-0.171818 -0.330996 0.930303
-0.17598 -0.335306 0.930303
-0.172465 -0.336308 0.933333
-0.179471 -0.334305 0.927273
-0.179564 -0.338521 0.927273
-0.176071 -0.339534 0.930303
-0.183034 -0.337509 0.924242
-0.183131 -0.34172 0.924242
-0.179659 -0.342744 0.927273
-0.186579 -0.340698 0.921212
-0.186679 -0.344903 0.921212
-0.183829 -0.347072 0.927273
-0.190106 -0.34387 0.918182
-0.190837 -0.349219 0.921212
-0.186781 -0.349115 0.921212
-0.194257 -0.348175 0.918182
-0.195006 -0.353547 0.921212
-0.190943 -0.35344 0.921212
-0.198417 -0.352494 0.918182
-0.198529 -0.356712 0.918182
-0.195115 -0.357778 0.921212
-0.202588 -0.356826 0.918182
-0.202703 -0.361053 0.918182
-0.199297 -0.362129 0.921212
-0.206769 -0.361171 0.918182
-0.206889 -0.365407 0.918182
-0.20349 -0.366494 0.921212
-0.210264 -0.364323 0.915152
-0.213617 -0.363241 0.912121
-0.211085 -0.369776 0.918182
-0.20701 -0.369652 0.918182
-0.214453 -0.368682 0.915152
-0.217799 -0.367589 0.912121
-0.214582 -0.372924 0.915152
-0.211211 -0.374031 0.918182
-0.218653 -0.373055 0.915152
-0.21767 -0.363367 0.912121
-0.22099 -0.362289 0.909091
-0.221121 -0.366499 0.909091
-0.225172 -0.366632 0.909091
-0.221992 -0.371952 0.912121
-0.225307 -0.370852 0.909091
-0.224288 -0.361213 0.906061
-0.225445 -0.37508 0.909091
-0.222127 -0.376193 0.912121
-0.218786 -0.377307 0.915152
-0.222264 -0.380441 0.912121
-0.218921 -0.381568 0.915152
-0.225585 -0.379316 0.909091
-0.226479 -0.38484 0.912121
-0.222403 -0.384698 0.912121
-0.229792 -0.383705 0.909091
-0.229939 -0.387961 0.909091
-0.22587 -0.387815 0.909091
-0.234012 -0.38811 0.909091
-0.234163 -0.392376 0.909091
-0.230087 -0.392225 0.909091
-0.238244 -0.39253 0.909091
-0.236812 -0.394163 0.90303
-0.233536 -0.39533 0.906061
-0.240873 -0.394321 0.90303
-0.243296 -0.391835 0.89697
-0.23697 -0.398421 0.90303
-0.233691 -0.3996 0.906061
-0.236334 -0.401338 0.9
-0.233067 -0.402529 0.90303
-0.229008 -0.402373 0.90303
-0.232443 -0.405439 0.9
-0.228395 -0.405281 0.9
-0.229622 -0.399445 0.906061
-0.226312 -0.400629 0.909091
-0.22947 -0.395177 0.906061
-0.225709 -0.403569 0.906061
-0.226163 -0.396349 0.909091
-0.222092 -0.396202 0.909091
-0.226015 -0.392077 0.909091
-0.221498 -0.399145 0.906061
-0.221948 -0.391932 0.909091
-0.217885 -0.39179 0.909091
-0.222545 -0.388964 0.912121
-0.218026 -0.396058 0.909091
-0.218471 -0.388823 0.912121
-0.215113 -0.389977 0.915152
-0.219058 -0.385837 0.915152
-0.214538 -0.392956 0.912121
-0.21569 -0.386978 0.918182
-0.212298 -0.388121 0.921212
-0.215555 -0.382696 0.918182
-0.211733 -0.391133 0.918182
-0.212166 -0.383827 0.921212
-0.208755 -0.38496 0.924242
-0.212036 -0.379542 0.921212
-0.208627 -0.380662 0.924242
-0.215423 -0.378423 0.918182
-0.204524 -0.380537 0.924242
-0.207817 -0.375139 0.921212
-0.203731 -0.375016 0.921212
-0.200304 -0.376128 0.924242
-0.20361 -0.370751 0.921212
-0.201082 -0.381661 0.927273
-0.200186 -0.371851 0.924242
-0.196096 -0.371734 0.924242
-0.199413 -0.366376 0.921212
-0.196212 -0.37601 0.924242
-0.195981 -0.367466 0.924242
-0.191897 -0.367354 0.924242
-0.195868 -0.363207 0.924242
-0.191787 -0.363096 0.924242
-0.188325 -0.364178 0.927273
-0.191678 -0.358845 0.924242
-0.188433 -0.368448 0.927273
-0.187603 -0.358739 0.924242
-0.187498 -0.354497 0.924242
-0.18403 -0.355557 0.927273
-0.183929 -0.35131 0.927273
-0.179755 -0.346974 0.927273
-0.181028 -0.353507 0.933333
-0.176738 -0.344889 0.933333
-0.173766 -0.347036 0.939394
-0.176832 -0.349146 0.933333
-0.172554 -0.340549 0.933333
-0.169014 -0.341566 0.936364
-0.168927 -0.337312 0.936364
-0.165899 -0.339409 0.942424
-0.168841 -0.333066 0.936364
-0.165984 -0.343689 0.942424
-0.165281 -0.334059 0.939394
-0.162218 -0.336131 0.945455
-0.165198 -0.329807 0.939394
-0.1623 -0.340417 0.945455
-0.162137 -0.331853 0.945455
-0.168756 -0.328826 0.936364
-0.165117 -0.325562 0.939394
-0.161018 -0.325482 0.939394
-0.160939 -0.321244 0.939394
-0.157857 -0.32324 0.945455
-0.157934 -0.327503 0.945455
-0.157276 -0.31796 0.942424
-0.153666 -0.318908 0.945455
-0.154232 -0.3242 0.948485
-0.150584 -0.325163 0.951515
-0.1548 -0.329526 0.951515
-0.150656 -0.329452 0.951515
-0.150032 -0.319858 0.948485
-0.146306 -0.316535 0.951515
-0.154876 -0.333823 0.951515
-0.158012 -0.331774 0.945455
-0.158598 -0.337128 0.948485
-0.159185 -0.342517 0.951515
-0.160281 -0.349044 0.957576
-0.162904 -0.345814 0.948485
-0.155447 -0.339203 0.954545
-0.164031 -0.352364 0.954545
-0.167139 -0.350214 0.948485
-0.170197 -0.348064 0.942424
-0.171383 -0.354625 0.948485
-0.174419 -0.352452 0.942424
-0.172571 -0.361249 0.954545
-0.174513 -0.356756 0.942424
-0.177502 -0.354557 0.936364
-0.173486 -0.358745 0.936364
-0.173582 -0.363036 0.936364
-0.172117 -0.364454 0.951515
-0.167762 -0.355668 0.951515
-0.170525 -0.365743 0.966667
-0.170618 -0.370163 0.966667
-0.16568 -0.360109 0.963636
-0.171247 -0.375765 0.969697
-0.171343 -0.380214 0.969697
-0.169176 -0.38487 0.981818
-0.168227 -0.386978 0.975758
-0.164964 -0.389287 0.981818
-0.164549 -0.39259 0.978788
-0.16075 -0.393712 0.981818
-0.168323 -0.39147 0.975758
-0.167898 -0.394741 0.972727
-0.164134 -0.395874 0.975758
-0.15985 -0.395779 0.975758
-0.164231 -0.400381 0.975758
-0.159944 -0.400285 0.975758
-0.155177 -0.39895 0.972727
-0.159045 -0.402286 0.969697
-0.155753 -0.404706 0.975758
-0.155086 -0.394459 0.972727
-0.151291 -0.395598 0.975758
-0.155963 -0.392406 0.978788
-0.156814 -0.41177 0.981818
-0.15203 -0.410406 0.978788
-0.158146 -0.404239 0.963636
-0.161777 -0.39861 0.960606
-0.166427 -0.395505 0.963636
-0.169493 -0.38869 0.957576
-0.170466 -0.386704 0.963636
-0.170368 -0.382267 0.963636
-0.17276 -0.369988 0.954545
-0.172857 -0.374369 0.954545
-0.172406 -0.377556 0.951515
-0.172506 -0.381939 0.951515
-0.171507 -0.383869 0.945455
-0.168519 -0.390629 0.951515
-0.167009 -0.391261 0.942424
-0.164431 -0.394935 0.951515
-0.164531 -0.399349 0.951515
-0.161364 -0.401794 0.957576
-0.16711 -0.395634 0.942424
-0.170714 -0.394465 0.939394
-0.168288 -0.402589 0.948485
-0.164632 -0.403772 0.951515
-0.170819 -0.398834 0.939394
-0.17061 -0.390104 0.939394
-0.170508 -0.385752 0.939394
-0.174752 -0.390209 0.939394
-0.174858 -0.394571 0.939394
-0.174083 -0.38461 0.936364
-0.178788 -0.385961 0.939394
-0.180627 -0.394093 0.948485
-0.185406 -0.395463 0.951515
-0.166779 -0.403107 0.939394
-0.16044 -0.403672 0.951515
-0.164734 -0.408204 0.951515
-0.16054 -0.408102 0.951515
-0.201862 -0.387231 0.930303
-0.205991 -0.387356 0.930303
-0.208132 -0.395516 0.939394
-0.210254 -0.391818 0.930303
-0.210386 -0.396162 0.930303
-0.209148 -0.397905 0.924242
-0.207723 -0.402989 0.936364
-0.203559 -0.402857 0.936364
-0.208935 -0.40119 0.942424
-0.206063 -0.403639 0.948485
-0.205934 -0.399214 0.948485
-0.198753 -0.401426 0.933333
-0.195241 -0.402604 0.936364
-0.189851 -0.399876 0.930303
-0.205166 -0.402103 0.924242
-0.201712 -0.40329 0.927273
-0.207911 -0.3996 0.918182
-0.210606 -0.397098 0.912121
-0.206674 -0.401247 0.912121
-0.202607 -0.401113 0.912121
-0.210044 -0.400051 0.909091
-0.211169 -0.394125 0.915152
-0.214105 -0.400191 0.909091
-0.210183 -0.404333 0.909091
-0.206811 -0.405541 0.912121
-0.214247 -0.404475 0.909091
-0.213964 -0.395916 0.909091
-0.21817 -0.400334 0.909091
-0.217587 -0.403271 0.906061
-0.221646 -0.403419 0.906061
-0.221054 -0.406338 0.90303
-0.217734 -0.407552 0.906061
-0.225107 -0.40649 0.90303
-0.22375 -0.408014 0.89697
-0.220464 -0.409238 0.9
-0.227014 -0.406791 0.893939
-0.230254 -0.405571 0.890909
-0.226402 -0.409647 0.890909
-0.22315 -0.410882 0.893939
-0.219874 -0.412119 0.89697
-0.221793 -0.412324 0.887879
-0.219286 -0.414981 0.893939
-0.225021 -0.411075 0.884848
-0.227442 -0.408421 0.878788
-0.22364 -0.412456 0.878788
-0.221952 -0.416561 0.887879
-0.227606 -0.412619 0.878788
-0.229632 -0.408414 0.887879
-0.232839 -0.407183 0.884848
-0.231409 -0.408585 0.878788
-0.233472 -0.404353 0.887879
-0.234903 -0.402869 0.893939
-0.238289 -0.405898 0.890909
-0.236834 -0.407349 0.884848
-0.237313 -0.4003 0.887879
-0.237151 -0.396092 0.887879
-0.240497 -0.399099 0.884848
-0.242313 -0.406066 0.890909
-0.240332 -0.394903 0.884848
-0.242636 -0.394731 0.893939
-0.245333 -0.400634 0.887879
-0.246837 -0.399128 0.893939
-0.251052 -0.403542 0.893939
-0.245505 -0.404856 0.887879
-0.250377 -0.406412 0.890909
-0.253551 -0.405208 0.887879
-0.24885 -0.407867 0.884848
-0.24484 -0.407691 0.884848
-0.252 -0.406649 0.881818
-0.255967 -0.405087 0.89697
-0.260915 -0.406636 0.9
-0.25934 -0.408156 0.893939
-0.256886 -0.408229 0.884848
-0.266273 -0.416808 0.90303
-0.266976 -0.413878 0.906061
-0.261995 -0.414066 0.887879
-0.268768 -0.4185 0.89697
-0.264423 -0.415666 0.881818
-0.259503 -0.414044 0.878788
-0.263711 -0.418469 0.878788
-0.259697 -0.418273 0.878788
-0.254806 -0.416638 0.875758
-0.258996 -0.421054 0.875758
-0.254116 -0.419403 0.872727
-0.262091 -0.419795 0.872727
-0.254617 -0.412427 0.875758
-0.250631 -0.412241 0.875758
-0.256191 -0.411051 0.881818
-0.250817 -0.41645 0.875758
-0.252181 -0.410866 0.881818
-0.247323 -0.409274 0.878788
-0.24665 -0.412058 0.875758
-0.243514 -0.413304 0.878788
-0.246832 -0.416264 0.875758
-0.243693 -0.417522 0.878788
-0.244176 -0.410507 0.881818
-0.239356 -0.408923 0.878788
-0.238704 -0.411703 0.875758
-0.241659 -0.408914 0.887879
-0.234568 -0.407342 0.875758
-0.234738 -0.411531 0.875758
-0.230777 -0.411362 0.875758
-0.230146 -0.41412 0.872727
-0.226201 -0.413953 0.872727
-0.234097 -0.414291 0.872727
-0.238879 -0.415905 0.875758
-0.233457 -0.417032 0.869697
-0.230317 -0.418312 0.872727
-0.23823 -0.418662 0.872727
-0.243034 -0.420297 0.875758
-0.238409 -0.422869 0.872727
-0.233633 -0.421223 0.869697
-0.243218 -0.424521 0.875758
-0.246349 -0.423238 0.872727
-0.242562 -0.427272 0.872727
-0.236934 -0.424121 0.866667
-0.246538 -0.427461 0.872727
-0.247017 -0.420481 0.875758
-0.250136 -0.419213 0.872727
-0.248588 -0.420487 0.866667
-0.252543 -0.420679 0.866667
-0.249649 -0.426168 0.869697
-0.253622 -0.426363 0.869697
-0.252936 -0.429087 0.866667
-0.248973 -0.42889 0.866667
-0.254209 -0.424785 0.857576
-0.25401 -0.420617 0.857576
-0.25531 -0.43048 0.860606
-0.254907 -0.436338 0.872727
-0.247626 -0.434278 0.860606
-0.246557 -0.428564 0.857576
-0.248699 -0.440033 0.863636
-0.243495 -0.429884 0.860606
-0.239567 -0.429693 0.860606
-0.245016 -0.428696 0.866667
-0.239379 -0.42551 0.860606
-0.23463 -0.423827 0.857576
-0.233984 -0.426481 0.854545
-0.23091 -0.42781 0.857576
-0.231545 -0.425143 0.860606
-0.226834 -0.423469 0.857576
-0.231367 -0.420976 0.860606
-0.227011 -0.42763 0.857576
-0.22666 -0.419319 0.857576
-0.222772 -0.419147 0.857576
-0.222943 -0.423295 0.857576
-0.224964 -0.41941 0.866667
-0.221043 -0.419242 0.866667
-0.226367 -0.418143 0.872727
-0.229689 -0.421048 0.869697
-0.21889 -0.418979 0.857576
-0.222423 -0.417976 0.872727
-0.215011 -0.418815 0.857576
-0.219057 -0.423125 0.857576
-0.215936 -0.424452 0.860606
-0.213538 -0.427276 0.866667
-0.216864 -0.43013 0.863636
-0.212209 -0.428454 0.860606
-0.222326 -0.43332 0.869697
-0.214122 -0.424571 0.869697
-0.21093 -0.425889 0.872727
-0.214706 -0.421846 0.872727
-0.209624 -0.427114 0.866667
-0.210772 -0.421688 0.872727
-0.207715 -0.42721 0.875758
-0.208996 -0.425923 0.881818
-0.207153 -0.429941 0.872727
-0.204632 -0.43277 0.878788
-0.201368 -0.434108 0.881818
-0.195367 -0.429483 0.872727
-0.191446 -0.429337 0.872727
-0.193295 -0.429563 0.881818
-0.18869 -0.427945 0.878788
-0.193816 -0.42679 0.884848
-0.189851 -0.426649 0.884848
-0.18971 -0.435276 0.90303
-0.189713 -0.422412 0.884848
-0.186665 -0.432232 0.887879
-0.185755 -0.422276 0.884848
-0.196991 -0.429787 0.9
-0.196849 -0.425486 0.9
-0.201701 -0.431379 0.90303
-0.199817 -0.431321 0.893939
-0.190226 -0.419618 0.887879
-0.185622 -0.418051 0.884848
-0.186761 -0.416671 0.890909
-0.182164 -0.415124 0.887879
-0.181671 -0.41792 0.884848
-0.183901 -0.415113 0.89697
-0.17869 -0.412183 0.890909
-0.184395 -0.41225 0.9
-0.178814 -0.416414 0.890909
-0.179174 -0.40935 0.893939
-0.173536 -0.409258 0.884848
-0.176861 -0.409123 0.90303
-0.172851 -0.409005 0.90303
-0.176742 -0.404865 0.90303
-0.180873 -0.409244 0.90303
-0.173315 -0.406107 0.906061
-0.180752 -0.404984 0.90303
-0.185386 -0.406466 0.906061
-0.18551 -0.410741 0.906061
-0.185882 -0.403545 0.909091
-0.183057 -0.406113 0.915152
-0.18638 -0.400604 0.912121
-0.189923 -0.403669 0.909091
-0.189416 -0.406591 0.906061
-0.183543 -0.403146 0.918182
-0.190431 -0.400727 0.912121
-0.192205 -0.400401 0.921212
-0.194486 -0.400853 0.912121
-0.193968 -0.403795 0.909091
-0.187497 -0.398962 0.918182
-0.196297 -0.400526 0.921212
-0.198545 -0.400981 0.912121
-0.198676 -0.405272 0.912121
-0.202741 -0.405405 0.912121
-0.202203 -0.408346 0.909091
-0.198148 -0.408211 0.909091
-0.206262 -0.408483 0.909091
-0.210325 -0.408624 0.909091
-0.205714 -0.411406 0.906061
-0.201666 -0.411267 0.906061
-0.209766 -0.411548 0.906061
-0.213108 -0.410317 0.90303
-0.209209 -0.414454 0.90303
-0.205856 -0.4157 0.906061
-0.213255 -0.4146 0.90303
-0.213677 -0.407405 0.906061
-0.217155 -0.410465 0.90303
-0.216576 -0.413359 0.9
-0.216728 -0.41764 0.9
-0.213405 -0.418894 0.90303
-0.210058 -0.42015 0.906061
-0.214273 -0.424617 0.906061
-0.210207 -0.424466 0.906061
-0.217613 -0.423352 0.90303
-0.220186 -0.420667 0.89697
-0.218501 -0.429102 0.906061
-0.21371 -0.427511 0.90303
-0.22109 -0.426391 0.9
-0.209654 -0.427358 0.90303
-0.213866 -0.431835 0.90303
-0.209807 -0.43168 0.90303
-0.205752 -0.431528 0.90303
-0.205212 -0.434395 0.9
-0.205603 -0.427208 0.90303
-0.201555 -0.427062 0.90303
-0.206145 -0.424318 0.906061
-0.202087 -0.424173 0.906061
-0.197371 -0.422613 0.90303
-0.20262 -0.421265 0.909091
-0.197894 -0.419721 0.906061
-0.206688 -0.421409 0.909091
-0.201804 -0.415559 0.906061
-0.197757 -0.415421 0.906061
-0.197621 -0.411131 0.906061
-0.19358 -0.410998 0.906061
-0.193713 -0.415286 0.906061
-0.19345 -0.406719 0.906061
-0.189543 -0.410868 0.906061
-0.189038 -0.413766 0.90303
-0.189169 -0.418048 0.90303
-0.193847 -0.419584 0.906061
-0.193334 -0.422475 0.90303
-0.205365 -0.438721 0.9
-0.199287 -0.434139 0.890909
-0.207143 -0.430159 0.890909
-0.205887 -0.431488 0.884848
-0.217198 -0.430544 0.9
-0.219762 -0.427805 0.893939
-0.220759 -0.422165 0.881818
-0.222113 -0.420809 0.887879
-0.223803 -0.416662 0.878788
-0.18282 -0.397526 0.915152
-0.183308 -0.394549 0.918182
-0.17806 -0.391831 0.912121
-0.178173 -0.396095 0.912121
-0.179131 -0.390151 0.918182
-0.173915 -0.387466 0.912121
-0.181383 -0.39097 0.930303
-0.173446 -0.390418 0.909091
-0.176118 -0.388313 0.924242
-0.171015 -0.389933 0.918182
-0.168168 -0.396709 0.924242
-0.16473 -0.402234 0.927273
-0.162212 -0.406074 0.936364
-0.167171 -0.398395 0.918182
-0.157588 -0.398498 0.909091
-0.155111 -0.402382 0.918182
-0.161603 -0.3986 0.909091
-0.158741 -0.405443 0.915152
-0.155724 -0.408026 0.921212
-0.161169 -0.401519 0.906061
-0.165176 -0.401625 0.906061
-0.161274 -0.405776 0.906061
-0.158319 -0.408384 0.912121
-0.165285 -0.405883 0.906061
-0.165622 -0.398705 0.909091
-0.169643 -0.398813 0.909091
-0.169187 -0.401734 0.906061
-0.170099 -0.395873 0.912121
-0.169992 -0.391612 0.912121
-0.173556 -0.394667 0.909091
-0.173667 -0.398924 0.909091
-0.179472 -0.403028 0.918182
-0.173201 -0.401846 0.906061
-0.178996 -0.405994 0.915152
-0.169299 -0.405994 0.906061
-0.168845 -0.408891 0.90303
-0.164842 -0.408779 0.90303
-0.160842 -0.40867 0.90303
-0.163292 -0.408883 0.893939
-0.16041 -0.411546 0.9
-0.15695 -0.412824 0.90303
-0.160519 -0.415802 0.9
-0.157583 -0.418493 0.906061
-0.156845 -0.408564 0.90303
-0.15285 -0.408461 0.90303
-0.154287 -0.408282 0.912121
-0.14976 -0.406826 0.909091
-0.148859 -0.408361 0.90303
-0.145357 -0.409634 0.906061
-0.141358 -0.409539 0.906061
-0.137361 -0.409447 0.906061
-0.156637 -0.419958 0.9
-0.160089 -0.418653 0.89697
-0.164071 -0.418766 0.89697
-0.160201 -0.422914 0.89697
-0.156219 -0.422803 0.89697
-0.163631 -0.421599 0.893939
-0.16285 -0.411712 0.890909
-0.165103 -0.407623 0.881818
-0.167488 -0.417466 0.893939
-0.166124 -0.406223 0.887879
-0.168905 -0.403563 0.881818
-0.16844 -0.406337 0.878788
-0.172823 -0.40368 0.881818
-0.171463 -0.417584 0.893939
-0.167606 -0.421716 0.893939
-0.171002 -0.420406 0.890909
-0.174374 -0.419098 0.887879
-0.175441 -0.417706 0.893939
-0.177723 -0.417793 0.884848
-0.17785 -0.422014 0.884848
-0.181178 -0.420698 0.881818
-0.181933 -0.426377 0.884848
-0.18082 -0.427671 0.878788
-0.162082 -0.421527 0.884848
-0.158147 -0.421413 0.884848
-0.164313 -0.417312 0.875758
-0.168213 -0.417431 0.875758
-0.171521 -0.416108 0.872727
-0.164432 -0.421495 0.875758
-0.160532 -0.421378 0.875758
-0.16717 -0.418698 0.869697
-0.171645 -0.42028 0.872727
-0.161705 -0.418324 0.860606
-0.168789 -0.417093 0.857576
-0.164378 -0.415497 0.854545
-0.17262 -0.417219 0.857576
-0.165083 -0.421088 0.857576
-0.170917 -0.416874 0.848485
-0.175541 -0.420407 0.872727
-0.167123 -0.416747 0.848485
-0.175339 -0.418492 0.851515
-0.172879 -0.425472 0.857576
-0.166652 -0.41933 0.845455
-0.170365 -0.432518 0.863636
-0.164163 -0.42632 0.851515
-0.160356 -0.426196 0.851515
-0.16312 -0.427376 0.845455
-0.160479 -0.430314 0.851515
-0.169898 -0.435166 0.860606
-0.174368 -0.436832 0.863636
-0.177757 -0.439616 0.860606
-0.158344 -0.434785 0.860606
-0.159461 -0.431351 0.845455
-0.156235 -0.432773 0.848485
-0.152441 -0.432653 0.848485
-0.1558 -0.435336 0.845455
-0.159586 -0.435461 0.845455
-0.161492 -0.426838 0.836364
-0.164643 -0.425419 0.833333
-0.161034 -0.429344 0.833333
-0.171443 -0.433287 0.848485
-0.174491 -0.42777 0.845455
-0.178288 -0.427907 0.845455
-0.176872 -0.420772 0.839394
-0.17999 -0.41939 0.836364
-0.180783 -0.42498 0.839394
-0.184413 -0.425879 0.857576
-0.188931 -0.427527 0.860606
-0.1928 -0.427673 0.860606
-0.197366 -0.429329 0.863636
-0.200707 -0.432146 0.860606
-0.203871 -0.430782 0.857576
-0.195206 -0.424036 0.836364
-0.191432 -0.423883 0.836364
-0.201869 -0.43034 0.848485
-0.207911 -0.435114 0.857576
-0.198193 -0.434315 0.848485
-0.206607 -0.436191 0.851515
-0.207747 -0.430943 0.857576
-0.207585 -0.426783 0.857576
-0.213122 -0.434154 0.863636
-0.211046 -0.433743 0.854545
-0.211109 -0.426219 0.839394
-0.205972 -0.427042 0.833333
-0.204566 -0.435653 0.842424
-0.214919 -0.426389 0.839394
-0.220312 -0.429643 0.845455
-0.208228 -0.424103 0.827273
-0.217795 -0.435848 0.866667
-0.223276 -0.43907 0.872727
-0.226449 -0.437723 0.869697
-0.224694 -0.430474 0.863636
-0.229599 -0.436379 0.866667
-0.23191 -0.43351 0.860606
-0.235831 -0.433697 0.860606
-0.237816 -0.448499 0.881818
-0.24229 -0.43847 0.869697
-0.246263 -0.438666 0.869697
-0.203473 -0.437578 0.854545
-0.212886 -0.445228 0.860606
-0.212214 -0.435994 0.842424
-0.193666 -0.432607 0.845455
-0.189851 -0.432454 0.845455
-0.185372 -0.430755 0.842424
-0.187661 -0.423734 0.836364
-0.191282 -0.419822 0.836364
-0.187514 -0.419675 0.836364
-0.18375 -0.419531 0.836364
-0.183894 -0.423588 0.836364
-0.20267 -0.432496 0.869697
-0.206592 -0.432654 0.869697
-0.152016 -0.435215 0.845455
-0.147704 -0.433537 0.842424
-0.147057 -0.427902 0.839394
-0.142904 -0.430304 0.836364
-0.137657 -0.425517 0.827273
-0.141241 -0.421611 0.827273
-0.137046 -0.419959 0.824242
-0.132881 -0.418311 0.821212
-0.134249 -0.418925 0.830303
-0.130077 -0.417296 0.827273
-0.149596 -0.431487 0.854545
-0.154499 -0.434664 0.860606
-0.16579 -0.426719 0.860606
-0.161824 -0.422454 0.860606
-0.156317 -0.417874 0.851515
-0.163656 -0.431102 0.869697
-0.15866 -0.427976 0.863636
-0.157869 -0.418206 0.860606
-0.152952 -0.415148 0.854545
-0.152522 -0.41776 0.851515
-0.154265 -0.426358 0.860606
-0.159337 -0.433657 0.866667
-0.156556 -0.436569 0.872727
-0.17623 -0.428229 0.854545
-0.176679 -0.438722 0.875758
-0.178594 -0.430116 0.866667
-0.181841 -0.428749 0.863636
-0.181066 -0.423095 0.860606
-0.186227 -0.426213 0.866667
-0.157177 -0.422721 0.878788
-0.153798 -0.424066 0.881818
-0.152852 -0.42534 0.875758
-0.14988 -0.423957 0.881818
-0.154216 -0.421302 0.884848
-0.150288 -0.421194 0.884848
-0.151211 -0.419839 0.890909
-0.14626 -0.41688 0.884848
-0.14234 -0.416779 0.884848
-0.141754 -0.411168 0.881818
-0.13738 -0.409659 0.878788
-0.137949 -0.415254 0.881818
-0.133587 -0.413733 0.878788
-0.133495 -0.409566 0.878788
-0.129166 -0.408064 0.875758
-0.129702 -0.413642 0.878788
-0.147866 -0.425415 0.893939
-0.148975 -0.43259 0.9
-0.146573 -0.429536 0.884848
-0.156548 -0.402031 0.927273
-0.239297 -0.427122 0.830303
-0.239496 -0.431207 0.830303
-0.250682 -0.43295 0.857576
-0.258347 -0.429169 0.857576
-0.257229 -0.423486 0.854545
-0.257938 -0.420817 0.857576
-0.260226 -0.422189 0.851515
-0.260434 -0.426344 0.851515
-0.260946 -0.419532 0.854545
-0.264442 -0.421276 0.866667
-0.263933 -0.41825 0.851515
-0.262262 -0.419391 0.845455
-0.266542 -0.418535 0.860606
-0.268593 -0.415795 0.854545
-0.272526 -0.416006 0.854545
-0.26785 -0.41846 0.851515
-0.270806 -0.417183 0.848485
-0.274721 -0.417399 0.848485
-0.269086 -0.418311 0.842424
-0.266155 -0.419602 0.845455
-0.272977 -0.418529 0.842424
-0.275485 -0.414744 0.851515
-0.27723 -0.413533 0.857576
-0.278423 -0.413485 0.848485
-0.277648 -0.416127 0.845455
-0.281186 -0.413749 0.857576
-0.281963 -0.41104 0.860606
-0.284141 -0.412506 0.854545
-0.282347 -0.413706 0.848485
-0.285935 -0.411257 0.860606
-0.290934 -0.412928 0.863636
-0.288095 -0.412729 0.854545
-0.294128 -0.415884 0.860606
-0.286277 -0.41393 0.848485
-0.29125 -0.415638 0.851515
-0.294157 -0.414391 0.848485
-0.289408 -0.416807 0.845455
-0.285481 -0.416577 0.845455
-0.293341 -0.417042 0.845455
-0.299412 -0.420272 0.851515
-0.297788 -0.427223 0.857576
-0.291718 -0.423964 0.851515
-0.285712 -0.420712 0.845455
-0.28697 -0.426382 0.848485
-0.280778 -0.418975 0.842424
-0.276874 -0.41875 0.842424
-0.281561 -0.41635 0.845455
-0.278985 -0.42006 0.836364
-0.276102 -0.421355 0.839394
-0.272215 -0.421131 0.839394
-0.275332 -0.42394 0.836364
-0.269488 -0.420644 0.830303
-0.278203 -0.422634 0.833333
-0.269712 -0.42473 0.830303
-0.268776 -0.429154 0.839394
-0.267584 -0.423493 0.836364
-0.263201 -0.429941 0.833333
-0.261234 -0.432846 0.839394
-0.25643 -0.431067 0.836364
-0.258074 -0.430047 0.842424
-0.254195 -0.429836 0.842424
-0.254901 -0.427237 0.845455
-0.250117 -0.425501 0.842424
-0.240248 -0.418612 0.821212
-0.245819 -0.421901 0.827273
-0.243108 -0.427322 0.830303
-0.247825 -0.429086 0.833333
-0.250745 -0.427733 0.830303
-0.24713 -0.431616 0.830303
-0.24331 -0.431409 0.830303
-0.249124 -0.428674 0.824242
-0.269303 -0.422431 0.842424
-0.266369 -0.423733 0.845455
-0.262472 -0.423519 0.845455
-0.260645 -0.43051 0.851515
-0.267541 -0.429409 0.848485
-0.266806 -0.432029 0.845455
-0.268555 -0.441096 0.863636
-0.264146 -0.425471 0.824242
-0.303921 -0.430489 0.863636
-0.295075 -0.432714 0.860606
-0.307957 -0.43074 0.863636
-0.307706 -0.426502 0.863636
-0.309615 -0.425238 0.869697
-0.304495 -0.423512 0.866667
-0.309306 -0.419558 0.857576
-0.312336 -0.419772 0.866667
-0.310447 -0.42246 0.872727
-0.305317 -0.420751 0.869697
-0.308049 -0.415307 0.866667
-0.305078 -0.41652 0.869697
-0.312089 -0.415549 0.866667
-0.311847 -0.411337 0.866667
-0.308886 -0.412536 0.869697
-0.314786 -0.410141 0.863636
-0.315647 -0.407375 0.866667
-0.320812 -0.409044 0.869697
-0.325764 -0.406488 0.872727
-0.321685 -0.406242 0.872727
-0.323878 -0.395526 0.857576
-0.327066 -0.395536 0.866667
-0.327651 -0.391629 0.857576
-0.33519 -0.396029 0.866667
-0.32558 -0.392975 0.851515
-0.333096 -0.397421 0.860606
-0.32983 -0.397351 0.851515
-0.332434 -0.404347 0.857576
-0.324918 -0.399806 0.848485
-0.340044 -0.408897 0.866667
-0.345341 -0.410596 0.869697
-0.335552 -0.407345 0.854545
-0.339593 -0.407613 0.854545
-0.346079 -0.410778 0.860606
-0.338659 -0.410335 0.851515
-0.334629 -0.410064 0.851515
-0.343918 -0.412071 0.854545
-0.347979 -0.412352 0.854545
-0.341757 -0.413316 0.848485
-0.337728 -0.413038 0.848485
-0.345794 -0.413598 0.848485
-0.351089 -0.415363 0.851515
-0.344845 -0.416288 0.845455
-0.346379 -0.413592 0.839394
-0.352049 -0.412636 0.854545
-0.354259 -0.41134 0.860606
-0.356128 -0.412926 0.854545
-0.355158 -0.415655 0.851515
-0.350165 -0.411057 0.860606
-0.357101 -0.410177 0.857576
-0.359336 -0.408845 0.863636
-0.361198 -0.410468 0.857576
-0.358938 -0.411754 0.851515
-0.355222 -0.408561 0.863636
-0.362183 -0.407698 0.860606
-0.365718 -0.407751 0.869697
-0.366299 -0.40799 0.860606
-0.365305 -0.410763 0.857576
-0.368585 -0.406621 0.866667
-0.369582 -0.403795 0.869697
-0.372735 -0.406915 0.866667
-0.367977 -0.40632 0.875758
-0.373743 -0.404087 0.869697
-0.375577 -0.40579 0.863636
-0.379732 -0.406093 0.863636
-0.373242 -0.407149 0.857576
-0.369121 -0.406849 0.857576
-0.377372 -0.407454 0.857576
-0.38286 -0.409204 0.860606
-0.377681 -0.411676 0.857576
-0.373546 -0.411367 0.857576
-0.381826 -0.41199 0.857576
-0.383896 -0.4064 0.863636
-0.388071 -0.406711 0.863636
-0.388387 -0.410961 0.863636
-0.389119 -0.403885 0.866667
-0.393314 -0.404198 0.866667
-0.392255 -0.407028 0.863636
-0.392576 -0.411282 0.863636
-0.396776 -0.411608 0.863636
-0.39432 -0.41296 0.857576
-0.390145 -0.412632 0.857576
-0.398505 -0.413293 0.857576
-0.402701 -0.413631 0.857576
-0.398843 -0.41755 0.857576
-0.396047 -0.418686 0.860606
-0.403044 -0.417893 0.857576
-0.405817 -0.416763 0.854545
-0.403392 -0.422166 0.857576
-0.397775 -0.420328 0.854545
-0.404729 -0.419533 0.851515
-0.40547 -0.412511 0.854545
-0.411126 -0.414322 0.857576
-0.408571 -0.415636 0.851515
-0.412229 -0.411512 0.860606
-0.413335 -0.408683 0.863636
-0.416468 -0.411861 0.860606
-0.413887 -0.413211 0.854545
-0.416118 -0.407593 0.860606
-0.420364 -0.407943 0.860606
-0.419237 -0.410765 0.857576
-0.418113 -0.413568 0.854545
-0.420853 -0.412463 0.851515
-0.419721 -0.415237 0.848485
-0.415508 -0.414871 0.848485
-0.423945 -0.415607 0.848485
-0.426653 -0.414498 0.845455
-0.422806 -0.418367 0.845455
-0.418591 -0.417992 0.845455
-0.425502 -0.417246 0.842424
-0.428181 -0.416128 0.839394
-0.422823 -0.41846 0.836364
-0.421669 -0.421108 0.842424
-0.430886 -0.414878 0.845455
-0.415962 -0.419216 0.839394
-0.413333 -0.420392 0.833333
-0.412156 -0.423072 0.839394
-0.415981 -0.419241 0.830303
-0.412209 -0.423062 0.830303
-0.409554 -0.424227 0.833333
-0.405407 -0.423852 0.833333
-0.406952 -0.425333 0.827273
-0.40283 -0.424956 0.827273
-0.409581 -0.424156 0.824242
-0.412191 -0.422982 0.821212
-0.406953 -0.425201 0.818182
-0.402858 -0.424817 0.818182
-0.41106 -0.42559 0.818182
-0.413326 -0.420355 0.824242
-0.417463 -0.420742 0.824242
-0.416319 -0.423373 0.821212
-0.420143 -0.419626 0.830303
-0.42122 -0.41695 0.824242
-0.421613 -0.421135 0.824242
-0.422381 -0.414295 0.827273
-0.425377 -0.417342 0.824242
-0.426158 -0.410502 0.827273
-0.436242 -0.412676 0.839394
-0.438893 -0.411579 0.836364
-0.420297 -0.408607 0.815152
-0.426388 -0.414669 0.818182
-0.425775 -0.421533 0.824242
-0.42995 -0.421937 0.824242
-0.434138 -0.422347 0.824242
-0.428778 -0.42458 0.821212
-0.424613 -0.424172 0.821212
-0.432957 -0.424995 0.821212
-0.437148 -0.425415 0.821212
-0.42858 -0.424456 0.812121
-0.424441 -0.424041 0.812121
-0.438339 -0.422764 0.824242
-0.434703 -0.415478 0.818182
-0.442553 -0.423186 0.824242
-0.441353 -0.425842 0.821212
-0.443757 -0.420512 0.827273
-0.447994 -0.420936 0.827273
-0.446782 -0.423614 0.824242
-0.432687 -0.40979 0.815152
-0.437108 -0.410178 0.824242
-0.425755 -0.410459 0.809091
-0.429742 -0.406766 0.818182
-0.425602 -0.406376 0.818182
