# .PCD v0.7 - Point Cloud Data file format
VERSION 0.7
FIELDS x y z
SIZE 4 4 4
TYPE F F F
COUNT 1 1 1
WIDTH 1886
HEIGHT 1
VIEWPOINT 0 0 0 1 0 0 0
POINTS 1886
DATA ascii
-0.157836 -0.340201 0.969697
-0.153611 -0.340124 0.969697
-0.157914 -0.344587 0.969697
-0.153687 -0.344509 0.969697
-0.161638 -0.34359 0.966667
-0.16172 -0.347971 0.966667
-0.157994 -0.34898 0.969697
-0.153765 -0.348901 0.969697
-0.158075 -0.35338 0.969697
-0.153843 -0.353299 0.969697
-0.161803 -0.352358 0.966667
-0.162394 -0.357871 0.969697
-0.158157 -0.357787 0.969697
-0.166114 -0.356838 0.966667
-0.166201 -0.361242 0.966667
-0.16248 -0.362286 0.969697
-0.170433 -0.361331 0.966667
-0.170525 -0.365743 0.966667
-0.166812 -0.366798 0.969697
-0.162567 -0.36671 0.969697
-0.166902 -0.371231 0.969697
-0.162655 -0.371141 0.969697
-0.170618 -0.370163 0.966667
-0.170712 -0.37459 0.966667
-0.166994 -0.375671 0.969697
-0.174954 -0.374686 0.966667
-0.175052 -0.379123 0.966667
-0.170807 -0.379026 0.966667
-0.1793 -0.379223 0.966667
-0.179402 -0.383669 0.966667
-0.175152 -0.383568 0.966667
-0.170904 -0.383469 0.966667
-0.175252 -0.388021 0.966667
-0.171538 -0.389137 0.969697
-0.179506 -0.388124 0.966667
-0.179611 -0.392586 0.966667
-0.175904 -0.393712 0.969697
-0.171638 -0.39361 0.969697
-0.176008 -0.398196 0.969697
-0.171739 -0.398093 0.969697
-0.179717 -0.397057 0.966667
-0.179825 -0.401537 0.966667
-0.176114 -0.402689 0.969697
-0.18409 -0.401647 0.966667
-0.184779 -0.407411 0.969697
-0.180498 -0.407299 0.969697
-0.189064 -0.407525 0.969697
-0.189181 -0.41204 0.969697
-0.184893 -0.411924 0.969697
-0.192867 -0.410871 0.966667
-0.192988 -0.415383 0.966667
-0.189299 -0.416564 0.969697
-0.197272 -0.415506 0.966667
-0.197398 -0.420029 0.966667
-0.193111 -0.419904 0.966667
-0.201688 -0.420157 0.966667
-0.201819 -0.424691 0.966667
-0.197525 -0.424561 0.966667
-0.206117 -0.424824 0.966667
-0.206252 -0.429369 0.966667
-0.201952 -0.429234 0.966667
-0.210557 -0.429507 0.966667
-0.210697 -0.434064 0.966667
-0.20639 -0.433924 0.966667
-0.215683 -0.435569 0.969697
-0.215155 -0.438776 0.966667
-0.21084 -0.438631 0.966667
-0.206529 -0.438489 0.966667
-0.210984 -0.443208 0.966667
-0.20667 -0.443065 0.966667
-0.215303 -0.443356 0.966667
-0.216128 -0.44935 0.969697
-0.211131 -0.447796 0.966667
-0.220467 -0.449503 0.969697
-0.220623 -0.454119 0.969697
-0.21628 -0.453964 0.969697
-0.224971 -0.454278 0.969697
-0.225132 -0.458908 0.969697
-0.220781 -0.458747 0.969697
-0.229487 -0.459072 0.969697
-0.229654 -0.463715 0.969697
-0.225296 -0.463549 0.969697
-0.220941 -0.463385 0.969697
-0.225462 -0.4682 0.969697
-0.221104 -0.468035 0.969697
-0.230542 -0.469833 0.972727
-0.230715 -0.474513 0.972727
-0.226335 -0.474342 0.972727
-0.235099 -0.474689 0.972727
-0.235278 -0.479383 0.972727
-0.230889 -0.479206 0.972727
-0.226506 -0.479031 0.972727
-0.231067 -0.483909 0.972727
-0.226679 -0.483733 0.972727
-0.235459 -0.48409 0.972727
-0.236376 -0.490331 0.975758
-0.231967 -0.490148 0.975758
-0.240791 -0.490518 0.975758
-0.240981 -0.495266 0.975758
-0.236563 -0.495077 0.975758
-0.245405 -0.49546 0.975758
-0.245602 -0.500224 0.975758
-0.241174 -0.500027 0.975758
-0.250811 -0.501979 0.978788
-0.255472 -0.506981 0.978788
-0.236752 -0.499835 0.975758
-0.232335 -0.499646 0.975758
-0.232149 -0.494891 0.975758
-0.227741 -0.494709 0.975758
-0.227922 -0.499462 0.975758
-0.227562 -0.489968 0.975758
-0.223162 -0.489792 0.975758
-0.223337 -0.494531 0.975758
-0.222297 -0.48356 0.972727
-0.217919 -0.483391 0.972727
-0.222127 -0.478861 0.972727
-0.218766 -0.489621 0.975758
-0.217753 -0.478694 0.972727
-0.213383 -0.478531 0.972727
-0.216911 -0.472533 0.969697
-0.213545 -0.483226 0.972727
-0.212559 -0.472372 0.969697
-0.22196 -0.474174 0.972727
-0.21675 -0.467874 0.969697
-0.212401 -0.467715 0.969697
-0.216592 -0.463226 0.969697
-0.212246 -0.46307 0.969697
-0.207905 -0.462918 0.969697
-0.212093 -0.458436 0.969697
-0.208056 -0.467561 0.969697
-0.207755 -0.458285 0.969697
-0.216435 -0.45859 0.969697
-0.211942 -0.453812 0.969697
-0.206959 -0.452246 0.966667
-0.206165 -0.446247 0.963636
-0.20123 -0.444702 0.960606
-0.202642 -0.452102 0.966667
-0.201091 -0.440147 0.960606
-0.19557 -0.437235 0.954545
-0.202222 -0.438351 0.966667
-0.195084 -0.440356 0.951515
-0.197298 -0.436841 0.963636
-0.193013 -0.43671 0.963636
-0.197786 -0.433654 0.966667
-0.19349 -0.433523 0.966667
-0.202086 -0.433787 0.966667
-0.197655 -0.429102 0.966667
-0.193362 -0.428974 0.966667
-0.193235 -0.424434 0.966667
-0.189541 -0.42564 0.969697
-0.189665 -0.430193 0.969697
-0.18942 -0.421097 0.969697
-0.185126 -0.420978 0.969697
-0.185245 -0.425519 0.969697
-0.185009 -0.416446 0.969697
-0.180722 -0.416331 0.969697
-0.180837 -0.420861 0.969697
-0.18061 -0.41181 0.969697
-0.176329 -0.4117 0.969697
-0.176439 -0.416219 0.969697
-0.176221 -0.40719 0.969697
-0.171946 -0.407084 0.969697
-0.172052 -0.411592 0.969697
-0.171842 -0.402584 0.969697
-0.167573 -0.402482 0.969697
-0.167675 -0.40698 0.969697
-0.167474 -0.397992 0.969697
-0.163211 -0.397894 0.969697
-0.167375 -0.393511 0.969697
-0.163308 -0.402383 0.969697
-0.163115 -0.393415 0.969697
-0.159354 -0.39455 0.972727
-0.16302 -0.388944 0.969697
-0.159447 -0.399042 0.972727
-0.159262 -0.390066 0.972727
-0.167278 -0.389039 0.969697
-0.167182 -0.384574 0.969697
-0.162927 -0.384481 0.969697
-0.159171 -0.385591 0.972727
-0.162835 -0.380026 0.969697
-0.159081 -0.381123 0.972727
-0.167087 -0.380119 0.969697
-0.162745 -0.375579 0.969697
-0.158993 -0.376664 0.972727
-0.158411 -0.371053 0.969697
-0.154651 -0.372127 0.972727
-0.158325 -0.366623 0.969697
-0.154736 -0.376578 0.972727
-0.154568 -0.367685 0.972727
-0.150318 -0.367603 0.972727
-0.154004 -0.362119 0.969697
-0.150399 -0.372045 0.972727
-0.150238 -0.36317 0.972727
-0.158241 -0.362201 0.969697
-0.153923 -0.357705 0.969697
-0.150159 -0.358744 0.972727
-0.150081 -0.354325 0.972727
-0.145842 -0.354249 0.972727
-0.150005 -0.349914 0.972727
-0.145917 -0.358667 0.972727
-0.145767 -0.349839 0.972727
-0.141532 -0.349766 0.972727
-0.14524 -0.34436 0.969697
-0.142045 -0.355279 0.975758
-0.141461 -0.345364 0.972727
-0.149462 -0.344433 0.969697
-0.149388 -0.34005 0.969697
-0.145168 -0.339977 0.969697
-0.141391 -0.340969 0.972727
-0.145097 -0.335602 0.969697
-0.141322 -0.336581 0.972727
-0.149315 -0.335673 0.969697
-0.149243 -0.331303 0.969697
-0.145027 -0.331233 0.969697
-0.141254 -0.332199 0.972727
-0.144958 -0.326871 0.969697
-0.141187 -0.327825 0.972727
-0.149172 -0.32694 0.969697
-0.149102 -0.322584 0.969697
-0.14489 -0.322515 0.969697
-0.141121 -0.323456 0.972727
-0.144824 -0.318166 0.969697
-0.141056 -0.319095 0.972727
-0.149033 -0.318234 0.969697
-0.144758 -0.313823 0.969697
-0.140992 -0.314739 0.972727
-0.140929 -0.31039 0.972727
-0.136715 -0.310328 0.972727
-0.136776 -0.314677 0.972727
-0.136655 -0.305986 0.972727
-0.132858 -0.30688 0.975758
-0.132917 -0.311235 0.975758
-0.132801 -0.302532 0.975758
-0.128582 -0.302476 0.975758
-0.128638 -0.306823 0.975758
-0.128527 -0.298134 0.975758
-0.124699 -0.299006 0.978788
-0.124752 -0.30336 0.978788
-0.124647 -0.294657 0.978788
-0.120796 -0.295518 0.981818
-0.124595 -0.290314 0.978788
-0.120847 -0.29988 0.981818
-0.120746 -0.291163 0.981818
-0.116873 -0.292013 0.984848
-0.120697 -0.286813 0.981818
-0.116921 -0.296381 0.984848
-0.116466 -0.286765 0.981818
-0.124544 -0.285977 0.978788
-0.120649 -0.282468 0.981818
-0.11642 -0.282421 0.981818
-0.120601 -0.278129 0.981818
-0.116374 -0.278083 0.981818
-0.112494 -0.278896 0.984848
-0.116329 -0.27375 0.981818
-0.112538 -0.283247 0.984848
-0.112451 -0.274551 0.984848
-0.120554 -0.273795 0.981818
-0.120508 -0.269467 0.981818
-0.116284 -0.269422 0.981818
-0.112408 -0.27021 0.984848
-0.116241 -0.2651 0.981818
-0.112366 -0.265875 0.984848
-0.120463 -0.265144 0.981818
-0.120047 -0.260021 0.978788
-0.115839 -0.259977 0.978788
-0.111979 -0.26074 0.981818
-0.115797 -0.255678 0.978788
-0.111938 -0.256429 0.981818
-0.120003 -0.255721 0.978788
-0.11996 -0.251426 0.978788
-0.116114 -0.252162 0.981818
-0.112243 -0.2529 0.984848
-0.116073 -0.24786 0.981818
-0.112204 -0.248585 0.984848
-0.119546 -0.246371 0.975758
-0.119505 -0.242099 0.975758
-0.115674 -0.24281 0.978788
-0.112165 -0.244274 0.984848
-0.115635 -0.23853 0.978788
-0.111782 -0.23923 0.981818
-0.119464 -0.237831 0.975758
-0.115596 -0.234255 0.978788
-0.111745 -0.234942 0.981818
-0.115558 -0.229984 0.978788
-0.111363 -0.229947 0.978788
-0.107833 -0.231335 0.984848
-0.111327 -0.225681 0.978788
-0.107869 -0.235631 0.984848
-0.107467 -0.226344 0.981818
-0.11552 -0.225717 0.978788
-0.115126 -0.220769 0.975758
-0.110947 -0.220734 0.975758
-0.107433 -0.22207 0.981818
-0.110912 -0.216489 0.975758
-0.107399 -0.2178 0.981818
-0.11509 -0.216524 0.975758
-0.110878 -0.212249 0.975758
-0.107035 -0.212875 0.978788
-0.110845 -0.208013 0.975758
-0.107003 -0.208627 0.978788
-0.103136 -0.209241 0.981818
-0.106971 -0.204382 0.978788
-0.103106 -0.204984 0.981818
-0.110812 -0.203781 0.975758
-0.111124 -0.200173 0.978788
-0.10694 -0.200141 0.978788
-0.103076 -0.200731 0.981818
-0.106909 -0.195905 0.978788
-0.103047 -0.196481 0.981818
-0.111092 -0.195935 0.978788
-0.111061 -0.191702 0.978788
-0.10688 -0.191671 0.978788
-0.1027 -0.191642 0.978788
-0.10685 -0.187442 0.978788
-0.10299 -0.187994 0.981818
-0.11103 -0.187472 0.978788
-0.111 -0.183245 0.978788
-0.106821 -0.183216 0.978788
-0.102962 -0.183755 0.981818
-0.106793 -0.178994 0.978788
-0.102935 -0.179521 0.981818
-0.110971 -0.179022 0.978788
-0.110942 -0.174803 0.978788
-0.106766 -0.174775 0.978788
-0.102591 -0.174748 0.978788
-0.106739 -0.170559 0.978788
-0.102565 -0.170533 0.978788
-0.110914 -0.170587 0.978788
-0.106712 -0.166347 0.978788
-0.102539 -0.166322 0.978788
-0.102832 -0.162615 0.981818
-0.098649 -0.162591 0.981818
-0.0986728 -0.166812 0.981818
-0.0986257 -0.158373 0.981818
-0.0947366 -0.158839 0.984848
-0.094759 -0.16307 0.984848
-0.0947148 -0.154612 0.984848
-0.0905238 -0.154591 0.984848
-0.0905446 -0.158818 0.984848
-0.0905034 -0.150367 0.984848
-0.0865803 -0.15081 0.987879
-0.0865997 -0.155047 0.987879
-0.0865613 -0.146577 0.987879
-0.0826147 -0.147008 0.990909
-0.0826327 -0.151254 0.990909
-0.0826512 -0.155503 0.990909
-0.0826701 -0.159755 0.990909
-0.0866196 -0.159286 0.987879
-0.08664 -0.163528 0.987879
-0.0826895 -0.16401 0.990909
-0.0905659 -0.163048 0.984848
-0.0905877 -0.167281 0.984848
-0.0866607 -0.167774 0.987879
-0.0947818 -0.167303 0.984848
-0.0948052 -0.17154 0.984848
-0.0906099 -0.171517 0.984848
-0.0986972 -0.171036 0.981818
-0.0987221 -0.175263 0.981818
-0.094829 -0.17578 0.984848
-0.0906327 -0.175756 0.984848
-0.0948533 -0.180023 0.984848
-0.0906559 -0.179999 0.984848
-0.0987475 -0.179494 0.981818
-0.0987734 -0.183729 0.981818
-0.0948782 -0.18427 0.984848
-0.0909585 -0.184812 0.987879
-0.0949035 -0.18852 0.984848
-0.0909827 -0.189075 0.987879
-0.0987998 -0.187966 0.981818
-0.0988268 -0.192208 0.981818
-0.0949294 -0.192774 0.984848
-0.0910075 -0.193342 0.987879
-0.0952479 -0.197638 0.987879
-0.0913119 -0.198218 0.990909
-0.0988543 -0.196453 0.981818
-0.0991875 -0.201321 0.984848
-0.0952748 -0.201913 0.987879
-0.091617 -0.203125 0.993939
-0.0953023 -0.206191 0.987879
-0.0916433 -0.207429 0.993939
-0.0992162 -0.205587 0.984848
-0.0992454 -0.209857 0.984848
-0.0956227 -0.211119 0.990909
-0.0995806 -0.21479 0.987879
-0.0956513 -0.215419 0.990909
-0.103486 -0.214161 0.984848
-0.103517 -0.21844 0.984848
-0.099611 -0.219081 0.987879
-0.0956804 -0.219723 0.990909
-0.0996419 -0.223376 0.987879
-0.0960027 -0.224715 0.993939
-0.103549 -0.222722 0.984848
-0.103901 -0.227708 0.987879
-0.0996734 -0.227675 0.987879
-0.096033 -0.229041 0.993939
-0.100011 -0.23269 0.990909
-0.0960638 -0.23337 0.993939
-0.103934 -0.232012 0.987879
-0.103969 -0.236321 0.987879
-0.100044 -0.237012 0.990909
-0.0960951 -0.237704 0.993939
-0.100077 -0.241338 0.990909
-0.0961269 -0.242043 0.993939
-0.104003 -0.240634 0.987879
-0.107905 -0.239931 0.984848
-0.104038 -0.244952 0.987879
-0.100111 -0.245668 0.990909
-0.107941 -0.244237 0.984848
-0.107979 -0.248546 0.984848
-0.104394 -0.250039 0.990909
-0.100452 -0.250768 0.993939
-0.10443 -0.25438 0.990909
-0.100487 -0.255121 0.993939
-0.108017 -0.252861 0.984848
-0.108055 -0.257181 0.984848
-0.104148 -0.257934 0.987879
-0.100216 -0.258688 0.990909
-0.104185 -0.262271 0.987879
-0.100252 -0.263038 0.990909
-0.108094 -0.261505 0.984848
-0.108134 -0.265834 0.984848
-0.104543 -0.267431 0.990909
-0.100289 -0.267393 0.990909
-0.104582 -0.271791 0.990909
-0.100326 -0.271753 0.990909
-0.108175 -0.270169 0.984848
-0.108216 -0.274508 0.984848
-0.104302 -0.275312 0.987879
-0.100364 -0.276118 0.990909
-0.104342 -0.27967 0.987879
-0.100403 -0.280488 0.990909
-0.108257 -0.278853 0.984848
-0.108633 -0.284075 0.987879
-0.104703 -0.284904 0.990909
-0.100442 -0.284864 0.990909
-0.104745 -0.289286 0.990909
-0.100482 -0.289245 0.990909
-0.108676 -0.288444 0.987879
-0.112583 -0.287604 0.984848
-0.10872 -0.292819 0.987879
-0.104787 -0.293674 0.990909
-0.112975 -0.292864 0.987879
-0.113022 -0.297245 0.987879
-0.108765 -0.297199 0.987879
-0.10483 -0.298067 0.990909
-0.10881 -0.301586 0.987879
-0.104873 -0.302466 0.990909
-0.113069 -0.301632 0.987879
-0.11697 -0.300755 0.984848
-0.113117 -0.306025 0.987879
-0.10919 -0.306916 0.990909
-0.11702 -0.305135 0.984848
-0.120898 -0.304247 0.981818
-0.11707 -0.309521 0.984848
-0.113165 -0.310424 0.987879
-0.12095 -0.30862 0.981818
-0.124806 -0.307721 0.978788
-0.121003 -0.312999 0.981818
-0.117121 -0.313913 0.984848
-0.124861 -0.312088 0.978788
-0.128694 -0.311177 0.975758
-0.124916 -0.31646 0.978788
-0.121057 -0.317385 0.981818
-0.129152 -0.316517 0.978788
-0.132976 -0.315596 0.975758
-0.12921 -0.320897 0.978788
-0.12536 -0.321833 0.981818
-0.133036 -0.319963 0.975758
-0.136838 -0.319031 0.972727
-0.133097 -0.324337 0.975758
-0.129269 -0.325283 0.978788
-0.136901 -0.323392 0.972727
-0.136965 -0.327759 0.972727
-0.133159 -0.328717 0.975758
-0.129329 -0.329676 0.978788
-0.133222 -0.333103 0.975758
-0.12939 -0.334075 0.978788
-0.13703 -0.332133 0.972727
-0.137096 -0.336513 0.972727
-0.133286 -0.337496 0.975758
-0.129452 -0.338481 0.978788
-0.133351 -0.341896 0.975758
-0.129515 -0.342894 0.978788
-0.137163 -0.340901 0.972727
-0.137231 -0.345295 0.972727
-0.133417 -0.346303 0.975758
-0.129579 -0.347313 0.978788
-0.133483 -0.350717 0.975758
-0.129643 -0.35174 0.978788
-0.137727 -0.350785 0.975758
-0.137797 -0.355207 0.975758
-0.133551 -0.355138 0.975758
-0.129709 -0.356174 0.978788
-0.133619 -0.359566 0.975758
-0.129775 -0.360615 0.978788
-0.137868 -0.359637 0.975758
-0.142118 -0.359709 0.975758
-0.13794 -0.364073 0.975758
-0.133689 -0.364002 0.975758
-0.142193 -0.364147 0.975758
-0.145993 -0.363092 0.972727
-0.142268 -0.368592 0.975758
-0.138013 -0.368517 0.975758
-0.146526 -0.368669 0.975758
-0.146605 -0.373123 0.975758
-0.142344 -0.373045 0.975758
-0.138086 -0.372969 0.975758
-0.142422 -0.377505 0.975758
-0.138161 -0.377429 0.975758
-0.146685 -0.377585 0.975758
-0.15095 -0.377666 0.975758
-0.146766 -0.382054 0.975758
-0.1425 -0.381974 0.975758
-0.151033 -0.382137 0.975758
-0.154822 -0.381036 0.972727
-0.151118 -0.386616 0.975758
-0.146848 -0.386532 0.975758
-0.154909 -0.385502 0.972727
-0.154997 -0.389976 0.972727
-0.151204 -0.391103 0.975758
-0.146931 -0.391018 0.975758
-0.151291 -0.395598 0.975758
-0.147016 -0.395512 0.975758
-0.155086 -0.394459 0.972727
-0.15566 -0.400192 0.975758
-0.151379 -0.400102 0.975758
-0.147101 -0.400015 0.975758
-0.151469 -0.404615 0.975758
-0.147645 -0.405782 0.978788
-0.155753 -0.404706 0.975758
-0.159542 -0.403543 0.972727
-0.155846 -0.409229 0.975758
-0.15156 -0.409136 0.975758
-0.159638 -0.408053 0.972727
-0.163917 -0.408151 0.972727
-0.159736 -0.412572 0.972727
-0.155941 -0.41376 0.975758
-0.164017 -0.412671 0.972727
-0.168302 -0.412773 0.972727
-0.164119 -0.4172 0.972727
-0.159834 -0.417099 0.972727
-0.168406 -0.417304 0.972727
-0.172159 -0.41611 0.969697
-0.168512 -0.421843 0.972727
-0.164222 -0.421738 0.972727
-0.172267 -0.420637 0.969697
-0.17655 -0.420748 0.969697
-0.172377 -0.425173 0.969697
-0.168619 -0.426393 0.972727
-0.176663 -0.425286 0.969697
-0.180952 -0.425401 0.969697
-0.176777 -0.429833 0.969697
-0.173027 -0.431062 0.972727
-0.18107 -0.42995 0.969697
-0.185366 -0.43007 0.969697
-0.181189 -0.434509 0.969697
-0.176894 -0.43439 0.969697
-0.184908 -0.433272 0.966667
-0.189197 -0.433396 0.966667
-0.185032 -0.437828 0.966667
-0.18131 -0.439077 0.969697
-0.189324 -0.437954 0.966667
-0.177011 -0.438957 0.969697
-0.173256 -0.440212 0.972727
-0.173372 -0.444802 0.972727
-0.173141 -0.435632 0.972727
-0.168838 -0.43552 0.972727
-0.16895 -0.440098 0.972727
-0.168728 -0.430951 0.972727
-0.164432 -0.430843 0.972727
-0.165052 -0.436767 0.975758
-0.164326 -0.426286 0.972727
-0.160534 -0.42751 0.975758
-0.160637 -0.43208 0.975758
-0.159934 -0.421636 0.972727
-0.156135 -0.42285 0.975758
-0.156234 -0.427409 0.975758
-0.156037 -0.4183 0.975758
-0.151745 -0.418205 0.975758
-0.15184 -0.422753 0.975758
-0.151652 -0.413666 0.975758
-0.147823 -0.414859 0.978788
-0.147914 -0.419411 0.978788
-0.147733 -0.410316 0.978788
-0.143439 -0.410229 0.978788
-0.143526 -0.41477 0.978788
-0.143353 -0.405696 0.978788
-0.139064 -0.405612 0.978788
-0.143269 -0.401172 0.978788
-0.139147 -0.410144 0.978788
-0.138983 -0.401089 0.978788
-0.134699 -0.401009 0.978788
-0.138902 -0.396575 0.978788
-0.135195 -0.406787 0.981818
-0.134621 -0.396496 0.978788
-0.143186 -0.396656 0.978788
-0.142661 -0.390935 0.975758
-0.138822 -0.392069 0.978788
-0.134544 -0.391991 0.978788
-0.138744 -0.387572 0.978788
-0.134468 -0.387495 0.978788
-0.14258 -0.38645 0.975758
-0.138667 -0.383082 0.978788
-0.134393 -0.383007 0.978788
-0.134319 -0.378526 0.978788
-0.13005 -0.378454 0.978788
-0.134247 -0.374054 0.978788
-0.130122 -0.382934 0.978788
-0.12998 -0.373983 0.978788
-0.126105 -0.375072 0.981818
-0.129911 -0.369519 0.978788
-0.126173 -0.379556 0.981818
-0.126038 -0.370596 0.981818
-0.134175 -0.369589 0.978788
-0.129843 -0.365063 0.978788
-0.125972 -0.366127 0.981818
-0.125907 -0.361665 0.981818
-0.122014 -0.362718 0.984848
-0.125842 -0.357212 0.981818
-0.122077 -0.367192 0.984848
-0.121952 -0.358251 0.984848
-0.118037 -0.359293 0.987879
-0.121891 -0.353792 0.984848
-0.118097 -0.363772 0.987879
-0.117978 -0.35482 0.987879
-0.125779 -0.352765 0.981818
-0.125717 -0.348325 0.981818
-0.12183 -0.349339 0.984848
-0.117919 -0.350355 0.987879
-0.121771 -0.344894 0.984848
-0.117862 -0.345897 0.987879
-0.125655 -0.343893 0.981818
-0.125594 -0.339468 0.981818
-0.121712 -0.340456 0.984848
-0.117805 -0.341446 0.987879
-0.121654 -0.336024 0.984848
-0.117749 -0.337002 0.987879
-0.125534 -0.335049 0.981818
-0.125475 -0.330637 0.981818
-0.121597 -0.3316 0.984848
-0.117694 -0.332564 0.987879
-0.12154 -0.327181 0.984848
-0.11764 -0.328133 0.987879
-0.125417 -0.326231 0.981818
-0.121111 -0.321777 0.981818
-0.117225 -0.322716 0.984848
-0.117173 -0.318311 0.984848
-0.113265 -0.319239 0.987879
-0.113315 -0.323657 0.987879
-0.113215 -0.314828 0.987879
-0.109284 -0.315745 0.990909
-0.109332 -0.320169 0.990909
-0.109237 -0.311328 0.990909
-0.105283 -0.312233 0.993939
-0.105329 -0.316664 0.993939
-0.105238 -0.307809 0.993939
-0.100955 -0.307765 0.993939
-0.101306 -0.313141 0.99697
-0.100912 -0.303348 0.993939
-0.0972214 -0.305156 1
-0.100871 -0.298936 0.993939
-0.0972621 -0.3096 1
-0.0968868 -0.299807 0.99697
-0.0928784 -0.300679 1
-0.096553 -0.29449 0.993939
-0.0929167 -0.305117 1
-0.0925595 -0.29535 0.99697
-0.100829 -0.29453 0.993939
-0.0965143 -0.29009 0.993939
-0.0925225 -0.290937 0.99697
-0.0964763 -0.285696 0.993939
-0.092205 -0.285659 0.993939
-0.0884713 -0.287366 1
-0.0921692 -0.281272 0.993939
-0.0887742 -0.29267 1.00303
-0.0884371 -0.282952 1
-0.0961448 -0.28045 0.990909
-0.0964019 -0.276925 0.993939
-0.0924149 -0.277733 0.99697
-0.0884034 -0.278543 1
-0.0923802 -0.273342 0.99697
-0.0883703 -0.27414 1
-0.0963655 -0.272547 0.993939
-0.0963298 -0.268174 0.993939
-0.092346 -0.268957 0.99697
-0.0883377 -0.269741 1
-0.0923124 -0.264577 0.99697
-0.0885732 -0.266152 1.00303
-0.0962946 -0.263807 0.993939
-0.0962599 -0.259444 0.993939
-0.0922793 -0.260201 0.99697
-0.0885416 -0.261751 1.00303
-0.0922467 -0.255831 0.99697
-0.0885104 -0.257355 1.00303
-0.0962259 -0.255087 0.993939
-0.0961923 -0.250734 0.993939
-0.0922147 -0.251466 0.99697
-0.0884797 -0.252963 1.00303
-0.0921831 -0.247105 0.99697
-0.0884496 -0.248577 1.00303
-0.0961594 -0.246386 0.993939
-0.0921522 -0.242749 0.99697
-0.0881528 -0.243457 1
-0.0921217 -0.238398 0.99697
-0.0881238 -0.239093 1
-0.0841013 -0.23979 1.00303
-0.0880952 -0.234734 1
-0.0841289 -0.244166 1.00303
-0.0840741 -0.235417 1.00303
-0.0920917 -0.234051 0.99697
-0.0920623 -0.229709 0.99697
-0.0880671 -0.230379 1
-0.0840474 -0.23105 1.00303
-0.0877727 -0.225343 0.99697
-0.0840211 -0.226686 1.00303
-0.0920334 -0.225371 0.99697
-0.0920049 -0.221038 0.99697
-0.0877457 -0.22101 0.99697
-0.0837416 -0.221656 1
-0.0877192 -0.216681 0.99697
-0.0837163 -0.217314 1
-0.0916975 -0.216049 0.993939
-0.0916701 -0.211737 0.993939
-0.0876931 -0.212356 0.99697
-0.0836915 -0.212977 1
-0.0876675 -0.208036 0.99697
-0.0836672 -0.208643 1
-0.0796423 -0.209252 1.00303
-0.0836433 -0.204314 1
-0.0796653 -0.213598 1.00303
-0.0796196 -0.20491 1.00303
-0.0876424 -0.203719 0.99697
-0.0873514 -0.1988 0.993939
-0.0836198 -0.199988 1
-0.0795973 -0.200571 1.00303
-0.0835968 -0.195666 1
-0.0795755 -0.196237 1.00303
-0.0873273 -0.194504 0.993939
-0.0873037 -0.190211 0.993939
-0.083321 -0.190768 0.99697
-0.0795541 -0.191906 1.00303
-0.083299 -0.186467 0.99697
-0.0795331 -0.187579 1.00303
-0.0870144 -0.185356 0.990909
-0.0867257 -0.18053 0.987879
-0.0830242 -0.181616 0.993939
-0.0790321 -0.182149 0.99697
-0.0830031 -0.177335 0.993939
-0.0790121 -0.177855 0.99697
-0.0752237 -0.178917 1.00303
-0.0789925 -0.173564 0.99697
-0.0752427 -0.183236 1.00303
-0.0752051 -0.174601 1.00303
-0.0829824 -0.173057 0.993939
-0.0827093 -0.168268 0.990909
-0.0866819 -0.172022 0.987879
-0.0867036 -0.176275 0.987879
-0.0789732 -0.169277 0.99697
-0.0751869 -0.170288 1.00303
-0.0789544 -0.164994 0.99697
-0.075169 -0.165978 1.00303
-0.0711189 -0.166463 1.00606
-0.0751515 -0.161672 1.00303
-0.0711357 -0.170785 1.00606
-0.0711025 -0.162144 1.00606
-0.078936 -0.160713 0.99697
-0.078918 -0.156436 0.99697
-0.0751345 -0.157369 1.00303
-0.0710864 -0.157828 1.00606
-0.0751178 -0.153069 1.00303
-0.0710706 -0.153516 1.00606
-0.0789004 -0.152161 0.99697
-0.0788832 -0.14789 0.99697
-0.0748746 -0.148323 1
-0.0710553 -0.149206 1.00606
-0.0667832 -0.149192 1.00606
-0.0667976 -0.153501 1.00606
-0.0627138 -0.153949 1.00909
-0.0668123 -0.157813 1.00606
-0.0627276 -0.158274 1.00909
-0.0627004 -0.149627 1.00909
-0.0584173 -0.149614 1.00909
-0.0586053 -0.154398 1.01212
-0.0584052 -0.145296 1.00909
-0.0542864 -0.14572 1.01212
-0.0542977 -0.150052 1.01212
-0.054113 -0.140969 1.00909
-0.0544718 -0.154848 1.01515
-0.0587935 -0.159211 1.01515
-0.0588067 -0.163565 1.01515
-0.0546583 -0.16404 1.01818
-0.0627417 -0.162602 1.00909
-0.0670287 -0.162617 1.00909
-0.0629445 -0.167434 1.01212
-0.0672454 -0.167449 1.01212
-0.0672613 -0.171797 1.01212
-0.0631477 -0.172296 1.01515
-0.0631628 -0.17666 1.01515
-0.0672774 -0.176148 1.01212
-0.0711529 -0.17511 1.00606
-0.0672939 -0.180503 1.01212
-0.0631783 -0.181027 1.01515
-0.0711704 -0.179439 1.00606
-0.0714028 -0.184325 1.00909
-0.0673108 -0.18486 1.01212
-0.063194 -0.185397 1.01515
-0.067328 -0.189222 1.01212
-0.0632101 -0.189772 1.01515
-0.0714211 -0.188673 1.00909
-0.0752621 -0.187559 1.00303
-0.0714398 -0.193026 1.00909
-0.0673455 -0.193587 1.01212
-0.0752819 -0.191886 1.00303
-0.0753021 -0.196216 1.00303
-0.0714589 -0.197382 1.00909
-0.0675651 -0.198548 1.01515
-0.0714783 -0.201742 1.00909
-0.0675834 -0.202934 1.01515
-0.0753226 -0.20055 1.00303
-0.0755712 -0.205507 1.00606
-0.0717128 -0.206724 1.01212
-0.0676021 -0.207324 1.01515
-0.0717331 -0.211105 1.01212
-0.0755927 -0.209862 1.00606
-0.0756145 -0.214221 1.00606
-0.0756367 -0.218583 1.00606
-0.0799296 -0.218607 1.00606
-0.0799536 -0.222974 1.00606
-0.0756594 -0.222951 1.00606
-0.0761383 -0.228691 1.01212
-0.0799781 -0.227346 1.00606
-0.080003 -0.231722 1.00606
-0.076162 -0.233093 1.01212
-0.0720552 -0.233768 1.01515
-0.076186 -0.2375 1.01212
-0.0720778 -0.238187 1.01515
-0.0800283 -0.236102 1.00606
-0.072033 -0.229353 1.01515
-0.0720111 -0.224943 1.01515
-0.0680843 -0.226265 1.02121
-0.0680641 -0.221833 1.02121
-0.0683069 -0.231386 1.02424
-0.0638988 -0.222471 1.02424
-0.0719896 -0.220537 1.01515
-0.0717537 -0.21549 1.01212
-0.0680443 -0.217405 1.02121
-0.0638803 -0.218031 1.02424
-0.0678229 -0.212349 1.01818
-0.0636731 -0.212962 1.02121
-0.0596745 -0.214209 1.02727
-0.0634665 -0.207924 1.01818
-0.0598675 -0.219303 1.0303
-0.0596579 -0.209764 1.02727
-0.0596416 -0.205322 1.02727
-0.0596257 -0.200885 1.02727
-0.0594342 -0.195872 1.02424
-0.0594189 -0.191455 1.02424
-0.0594039 -0.187042 1.02424
-0.0593891 -0.182633 1.02424
-0.0595504 -0.178754 1.02727
-0.0597119 -0.174853 1.0303
-0.0591712 -0.168924 1.02121
-0.0597086 -0.223112 1.02727
-0.0642959 -0.228259 1.0303
-0.0645044 -0.233419 1.03333
-0.0645241 -0.237912 1.03333
-0.0685301 -0.236537 1.02727
-0.0685515 -0.241009 1.02727
-0.0681688 -0.244037 1.02121
-0.0721009 -0.242611 1.01515
-0.0681908 -0.248491 1.02121
-0.0721243 -0.247039 1.01515
-0.0762353 -0.246326 1.01212
-0.0721481 -0.251472 1.01515
-0.0684156 -0.253701 1.02424
-0.0762606 -0.250746 1.01212
-0.0762104 -0.241911 1.01212
-0.0800541 -0.240487 1.00606
-0.0800803 -0.244877 1.00606
-0.080107 -0.249271 1.00606
-0.084157 -0.248548 1.00303
-0.0841856 -0.252934 1.00303
-0.0801341 -0.25367 1.00606
-0.0762863 -0.255171 1.01212
-0.0801617 -0.258073 1.00606
-0.0842147 -0.257325 1.00303
-0.0842442 -0.26172 1.00303
-0.0804312 -0.263273 1.00909
-0.0765676 -0.264826 1.01515
-0.0807015 -0.268503 1.01212
-0.0845289 -0.266925 1.00606
-0.0763124 -0.259601 1.01212
-0.0724125 -0.26113 1.01818
-0.0723878 -0.256674 1.01818
-0.0684385 -0.258178 1.02424
-0.0642275 -0.254429 1.02727
-0.0646279 -0.260447 1.03333
-0.065029 -0.266522 1.03939
-0.0694745 -0.266545 1.03939
-0.0680801 -0.265566 1.01818
-0.0845595 -0.271344 1.00606
-0.0807306 -0.272949 1.01212
-0.0805184 -0.276569 1.00909
-0.076879 -0.279031 1.01818
-0.0843358 -0.274938 1.00303
-0.0843673 -0.279354 1.00303
-0.0805483 -0.281011 1.00909
-0.0805788 -0.285459 1.00909
-0.0843993 -0.283776 1.00303
-0.0844318 -0.288203 1.00303
-0.0808518 -0.290783 1.01212
-0.0806412 -0.294371 1.00909
-0.0844649 -0.292636 1.00303
-0.0844984 -0.297074 1.00303
-0.0806731 -0.298836 1.00909
-0.0888096 -0.297109 1.00303
-0.0888455 -0.301553 1.00303
-0.0850432 -0.30334 1.00909
-0.0807054 -0.303306 1.00909
-0.085078 -0.307817 1.00909
-0.0809808 -0.308707 1.01212
-0.0891504 -0.306928 1.00606
-0.0891875 -0.311398 1.00606
-0.0853689 -0.313237 1.01212
-0.0929555 -0.30956 1
-0.0932766 -0.314961 1.00303
-0.0973034 -0.31405 1
-0.0973454 -0.318506 1
-0.0933167 -0.31943 1.00303
-0.101349 -0.317584 0.99697
-0.101394 -0.322034 0.99697
-0.0973879 -0.322969 1
-0.105375 -0.3211 0.993939
-0.105422 -0.325543 0.993939
-0.101439 -0.326489 0.99697
-0.109381 -0.324599 0.990909
-0.109431 -0.329036 0.990909
-0.10547 -0.329993 0.993939
-0.113367 -0.32808 0.987879
-0.113419 -0.33251 0.987879
-0.109481 -0.333479 0.990909
-0.105518 -0.334449 0.993939
-0.109867 -0.338962 0.993939
-0.105567 -0.338911 0.993939
-0.11382 -0.337981 0.990909
-0.113874 -0.342438 0.990909
-0.109919 -0.343432 0.993939
-0.105939 -0.344427 0.99697
-0.109972 -0.347909 0.993939
-0.10599 -0.348917 0.99697
-0.113929 -0.346902 0.990909
-0.113984 -0.351373 0.990909
-0.110025 -0.352392 0.993939
-0.106041 -0.353414 0.99697
-0.110079 -0.356883 0.993939
-0.106093 -0.357918 0.99697
-0.114041 -0.355851 0.990909
-0.114098 -0.360336 0.990909
-0.110134 -0.361381 0.993939
-0.106146 -0.362429 0.99697
-0.11019 -0.365887 0.993939
-0.1062 -0.366947 0.99697
-0.114156 -0.364829 0.990909
-0.114215 -0.369329 0.990909
-0.110247 -0.3704 0.993939
-0.118158 -0.368259 0.987879
-0.11822 -0.372754 0.987879
-0.114274 -0.373836 0.990909
-0.122141 -0.371674 0.984848
-0.122206 -0.376163 0.984848
-0.118283 -0.377256 0.987879
-0.114335 -0.378351 0.990909
-0.118346 -0.381766 0.987879
-0.114046 -0.381704 0.987879
-0.122272 -0.38066 0.984848
-0.122339 -0.385165 0.984848
-0.11841 -0.386284 0.987879
-0.126242 -0.384048 0.981818
-0.126312 -0.388549 0.981818
-0.122406 -0.389678 0.984848
-0.130597 -0.38862 0.981818
-0.130671 -0.39313 0.981818
-0.126383 -0.393057 0.981818
-0.122475 -0.3942 0.984848
-0.126455 -0.397574 0.981818
-0.122544 -0.398729 0.984848
-0.130745 -0.397647 0.981818
-0.130821 -0.402174 0.981818
-0.126528 -0.402099 0.981818
-0.122615 -0.403268 0.984848
-0.126993 -0.407888 0.984848
-0.122686 -0.407814 0.984848
-0.130897 -0.406708 0.981818
-0.130975 -0.411252 0.981818
-0.127068 -0.412444 0.984848
-0.135275 -0.411331 0.981818
-0.135357 -0.415885 0.981818
-0.131054 -0.415804 0.981818
-0.139662 -0.415968 0.981818
-0.139748 -0.420532 0.981818
-0.135439 -0.420447 0.981818
-0.143614 -0.419321 0.978788
-0.144148 -0.425193 0.981818
-0.139834 -0.425105 0.981818
-0.148006 -0.423972 0.978788
-0.148099 -0.428543 0.978788
-0.144238 -0.429777 0.981818
-0.151936 -0.427311 0.975758
-0.152505 -0.43322 0.978788
-0.148194 -0.433123 0.978788
-0.156334 -0.431978 0.975758
-0.156435 -0.436556 0.975758
-0.152604 -0.437811 0.978788
-0.160742 -0.43666 0.975758
-0.160848 -0.441249 0.975758
-0.156538 -0.441144 0.975758
-0.165161 -0.441358 0.975758
-0.165271 -0.445959 0.975758
-0.160955 -0.445849 0.975758
-0.169063 -0.444686 0.972727
-0.169178 -0.449285 0.972727
-0.165383 -0.45057 0.975758
-0.17349 -0.449402 0.972727
-0.17361 -0.454012 0.972727
-0.169822 -0.455308 0.975758
-0.177928 -0.454134 0.972727
-0.181682 -0.452845 0.969697
-0.178053 -0.458757 0.972727
-0.173731 -0.458633 0.972727
-0.181809 -0.457455 0.969697
-0.186124 -0.457585 0.969697
-0.182507 -0.46352 0.972727
-0.178179 -0.463391 0.972727
-0.186257 -0.462207 0.969697
-0.190579 -0.462343 0.969697
-0.186974 -0.4683 0.972727
-0.182639 -0.468166 0.972727
-0.191313 -0.468437 0.972727
-0.190443 -0.457718 0.969697
-0.189119 -0.450273 0.963636
-0.194157 -0.456424 0.966667
-0.194905 -0.462481 0.969697
-0.184831 -0.450142 0.963636
-0.193411 -0.450407 0.963636
-0.198329 -0.451961 0.966667
-0.199091 -0.457995 0.969697
-0.203421 -0.458138 0.969697
-0.199234 -0.462623 0.969697
-0.203567 -0.462769 0.969697
-0.203716 -0.46741 0.969697
-0.200002 -0.468723 0.972727
-0.195046 -0.467119 0.969697
-0.200149 -0.473388 0.972727
-0.195799 -0.473241 0.972727
-0.204503 -0.473538 0.972727
-0.208861 -0.473691 0.972727
-0.204656 -0.478216 0.972727
-0.209017 -0.478372 0.972727
-0.209176 -0.483065 0.972727
-0.204811 -0.482907 0.972727
-0.214375 -0.489453 0.975758
-0.218937 -0.494357 0.975758
-0.219791 -0.500655 0.978788
-0.223514 -0.499281 0.975758
-0.191453 -0.473099 0.972727
-0.187111 -0.472959 0.972727
-0.182772 -0.472823 0.972727
-0.178437 -0.472691 0.972727
-0.178307 -0.468035 0.972727
-0.173979 -0.467908 0.972727
-0.174647 -0.474034 0.975758
-0.173854 -0.463265 0.972727
-0.17006 -0.464586 0.975758
-0.170182 -0.469242 0.975758
-0.16994 -0.459941 0.975758
-0.165612 -0.459824 0.975758
-0.165729 -0.464467 0.975758
-0.165497 -0.455192 0.975758
-0.161675 -0.456492 0.978788
-0.161787 -0.461137 0.978788
-0.161564 -0.451858 0.978788
-0.157235 -0.451749 0.978788
-0.157342 -0.456382 0.978788
-0.156642 -0.445742 0.975758
-0.152806 -0.447023 0.978788
-0.152908 -0.451644 0.978788
-0.152704 -0.442412 0.978788
-0.148846 -0.443682 0.981818
-0.148945 -0.448306 0.981818
-0.148289 -0.437713 0.978788
-0.144423 -0.438973 0.981818
-0.144518 -0.443585 0.981818
-0.14433 -0.43437 0.981818
-0.140011 -0.434279 0.981818
-0.140533 -0.440235 0.984848
-0.139922 -0.429687 0.981818
-0.136026 -0.430926 0.984848
-0.136113 -0.435531 0.984848
-0.135941 -0.426331 0.984848
-0.131619 -0.426248 0.984848
-0.131701 -0.430842 0.984848
-0.131538 -0.421663 0.984848
-0.127221 -0.421584 0.984848
-0.127299 -0.426168 0.984848
-0.127144 -0.417009 0.984848
-0.122832 -0.416934 0.984848
-0.122907 -0.421508 0.984848
-0.122759 -0.41237 0.984848
-0.118816 -0.413567 0.987879
-0.118887 -0.418144 0.987879
-0.118746 -0.408998 0.987879
-0.114782 -0.410185 0.990909
-0.118677 -0.404439 0.987879
-0.114849 -0.414766 0.990909
-0.114364 -0.404371 0.987879
-0.110729 -0.406787 0.993939
-0.114299 -0.399821 0.987879
-0.110793 -0.411373 0.993939
-0.110666 -0.40221 0.993939
-0.118609 -0.399887 0.987879
-0.118542 -0.395345 0.987879
-0.114234 -0.395279 0.987879
-0.110603 -0.397641 0.993939
-0.114171 -0.390746 0.987879
-0.110542 -0.393081 0.993939
-0.118476 -0.390811 0.987879
-0.114108 -0.386221 0.987879
-0.110481 -0.388529 0.993939
-0.110421 -0.383985 0.993939
-0.106746 -0.386268 1
-0.110362 -0.379449 0.993939
-0.106803 -0.390839 1
-0.106365 -0.380548 0.99697
-0.102344 -0.381649 1
-0.106309 -0.376007 0.99697
-0.102709 -0.387382 1.00303
-0.10229 -0.377095 1
-0.110304 -0.37492 0.993939
-0.106254 -0.371473 0.99697
-0.102237 -0.372549 1
-0.101876 -0.366894 0.99697
-0.0981458 -0.369074 1.00303
-0.101824 -0.362377 0.99697
-0.0984925 -0.374755 1.00606
-0.0980965 -0.36453 1.00303
-0.0940347 -0.365583 1.00606
-0.0980479 -0.359992 1.00303
-0.0943652 -0.371255 1.00909
-0.0939882 -0.361033 1.00606
-0.101774 -0.357866 0.99697
-0.101724 -0.353363 0.99697
-0.098 -0.355463 1.00303
-0.0939424 -0.35649 1.00606
-0.0976568 -0.34988 1
-0.0936144 -0.350894 1.00303
-0.101675 -0.348867 0.99697
-0.101626 -0.344378 0.99697
-0.0976103 -0.345378 1
-0.09357 -0.346379 1.00303
-0.0975646 -0.340883 1
-0.0935263 -0.341871 1.00303
-0.101578 -0.339896 0.99697
-0.101531 -0.335421 0.99697
-0.0975194 -0.336394 1
-0.0934831 -0.33737 1.00303
-0.097475 -0.331912 1
-0.0934406 -0.332875 1.00303
-0.101485 -0.330952 0.99697
-0.0974311 -0.327437 1
-0.0933987 -0.328387 1.00303
-0.0933574 -0.323905 1.00303
-0.0895712 -0.325822 1.00909
-0.0896107 -0.33033 1.00909
-0.0895323 -0.321321 1.00909
-0.0856971 -0.323213 1.01515
-0.089494 -0.316825 1.00909
-0.0857342 -0.327741 1.01515
-0.0856605 -0.318691 1.01515
-0.0812909 -0.318655 1.01515
-0.081811 -0.325106 1.02121
-0.0812568 -0.31414 1.01515
-0.0818463 -0.329661 1.02121
-0.0818822 -0.334222 1.02121
-0.0857719 -0.332275 1.01515
-0.0858102 -0.336816 1.01515
-0.0819186 -0.33879 1.02121
-0.0896508 -0.334845 1.00909
-0.0896915 -0.339366 1.00909
-0.0858489 -0.341364 1.01515
-0.0819555 -0.343364 1.02121
-0.0858883 -0.345919 1.01515
-0.0819929 -0.347945 1.02121
-0.0897327 -0.343894 1.00909
-0.0897746 -0.348429 1.00909
-0.0859282 -0.35048 1.01515
-0.0820309 -0.352533 1.02121
-0.0859687 -0.355049 1.01515
-0.0820694 -0.357128 1.02121
-0.0898171 -0.35297 1.00909
-0.09013 -0.358593 1.01212
-0.0862666 -0.360697 1.01818
-0.0821085 -0.36173 1.02121
-0.0863084 -0.365294 1.01818
-0.0821482 -0.36634 1.02121
-0.0901738 -0.363162 1.01212
-0.0902182 -0.367739 1.01212
-0.0863508 -0.369897 1.01818
-0.0821884 -0.370957 1.02121
-0.0863938 -0.374509 1.01818
-0.0902633 -0.372324 1.01212
-0.0905794 -0.378044 1.01515
-0.0864374 -0.379127 1.01818
-0.0946966 -0.376963 1.01212
-0.0947454 -0.381563 1.01212
-0.0908964 -0.3838 1.01818
-0.0985433 -0.379328 1.00606
-0.0985949 -0.383909 1.00606
-0.0989443 -0.389668 1.00909
-0.0951289 -0.391957 1.01515
-0.0989975 -0.394279 1.00909
-0.0951799 -0.396595 1.01515
-0.103075 -0.39315 1.00606
-0.0950786 -0.387327 1.01515
-0.0912144 -0.389591 1.02121
-0.0912624 -0.394247 1.02121
-0.0868295 -0.3942 1.02121
-0.0910402 -0.397729 1.01818
-0.0868758 -0.398864 1.02121
-0.0870415 -0.3907 1.02424
-0.0825993 -0.390656 1.02424
-0.086739 -0.384896 1.02121
-0.0826426 -0.395325 1.02424
-0.0825567 -0.385994 1.02424
-0.0825146 -0.381341 1.02424
-0.0824731 -0.376695 1.02424
-0.0824418 -0.398819 1.02121
-0.0770024 -0.384836 1.00909
-0.0827309 -0.404688 1.02424
-0.0869227 -0.403537 1.02121
-0.0913606 -0.403585 1.02121
-0.0869702 -0.408218 1.02121
-0.0832658 -0.411805 1.0303
-0.0914108 -0.408267 1.02121
-0.095284 -0.405896 1.01515
-0.0911902 -0.411732 1.01818
-0.0870184 -0.412907 1.02121
-0.0953371 -0.410559 1.01515
-0.0952316 -0.401241 1.01515
-0.0990514 -0.398899 1.00909
-0.0991061 -0.403526 1.00909
-0.0991615 -0.408162 1.00909
-0.0992177 -0.412806 1.00909
-0.095391 -0.41523 1.01515
-0.0912415 -0.416417 1.01818
-0.0954456 -0.419911 1.01515
-0.0912936 -0.42111 1.01818
-0.0992747 -0.41746 1.00909
-0.103364 -0.416265 1.00606
-0.0996307 -0.42339 1.01212
-0.103424 -0.420914 1.00606
-0.107167 -0.41844 1
-0.103797 -0.426854 1.00909
-0.107555 -0.424353 1.00303
-0.10762 -0.429007 1.00303
-0.104171 -0.432831 1.01212
-0.104234 -0.437535 1.01212
-0.107685 -0.43367 1.00303
-0.111397 -0.431116 0.99697
-0.108077 -0.439667 1.00606
-0.104298 -0.44225 1.01212
-0.111804 -0.437086 1
-0.115481 -0.434508 0.993939
-0.112213 -0.443094 1.00303
-0.108144 -0.444363 1.00606
-0.115905 -0.440489 0.99697
-0.115409 -0.429876 0.993939
-0.114987 -0.423956 0.990909
-0.119397 -0.428637 0.990909
-0.119471 -0.433256 0.990909
-0.11099 -0.425184 0.993939
-0.110924 -0.420571 0.993939
-0.114918 -0.419357 0.990909
-0.118959 -0.422731 0.987879
-0.110858 -0.415968 0.993939
-0.107104 -0.413818 1
-0.106718 -0.407965 0.99697
-0.102993 -0.410385 1.00303
-0.102935 -0.405767 1.00303
-0.106657 -0.403375 0.99697
-0.106597 -0.398793 0.99697
-0.102566 -0.399947 1
-0.10282 -0.396558 1.00303
-0.106538 -0.394219 0.99697
-0.12336 -0.427401 0.987879
-0.123437 -0.432007 0.987879
-0.127771 -0.432086 0.987879
-0.127851 -0.436703 0.987879
-0.123894 -0.437962 0.990909
-0.13219 -0.436785 0.987879
-0.132275 -0.441413 0.987879
-0.127933 -0.441329 0.987879
-0.1362 -0.440145 0.984848
-0.136708 -0.446138 0.987879
-0.132767 -0.447418 0.990909
-0.140625 -0.44486 0.984848
-0.140718 -0.449496 0.984848
-0.136798 -0.450787 0.987879
-0.144613 -0.448208 0.981818
-0.145157 -0.454238 0.984848
-0.140812 -0.454142 0.984848
-0.149045 -0.45294 0.981818
-0.149146 -0.457584 0.981818
-0.145256 -0.458896 0.984848
-0.153013 -0.456276 0.978788
-0.153593 -0.462345 0.981818
-0.149249 -0.46224 0.981818
-0.157452 -0.461026 0.978788
-0.157562 -0.46568 0.978788
-0.1537 -0.467012 0.981818
-0.161901 -0.465793 0.978788
-0.162016 -0.47046 0.978788
-0.157674 -0.470346 0.978788
-0.165847 -0.469121 0.975758
-0.165967 -0.473786 0.975758
-0.162133 -0.475138 0.978788
-0.170305 -0.473908 0.975758
-0.17043 -0.478586 0.975758
-0.166088 -0.478462 0.975758
-0.174776 -0.478714 0.975758
-0.176536 -0.487909 0.984848
-0.170557 -0.483276 0.975758
-0.165695 -0.48165 0.972727
-0.170155 -0.486462 0.972727
-0.16582 -0.486335 0.972727
-0.175582 -0.489624 0.978788
-0.17626 -0.495885 0.981818
-0.176941 -0.502187 0.984848
-0.170948 -0.497416 0.975758
-0.180786 -0.500781 0.981818
-0.18037 -0.503991 0.978788
-0.175445 -0.502291 0.975758
-0.184182 -0.502575 0.975758
-0.190899 -0.508968 0.987879
-0.171081 -0.502154 0.975758
-0.166721 -0.502021 0.975758
-0.166591 -0.497285 0.975758
-0.162742 -0.498702 0.978788
-0.165946 -0.491032 0.972727
-0.162869 -0.503451 0.978788
-0.162617 -0.493965 0.978788
-0.170285 -0.491161 0.972727
-0.158257 -0.493843 0.978788
-0.161991 -0.487726 0.975758
-0.158869 -0.500121 0.981818
-0.158137 -0.48912 0.978788
-0.15426 -0.490517 0.981818
-0.158019 -0.484409 0.978788
-0.154145 -0.485793 0.981818
-0.161869 -0.483028 0.975758
-0.162252 -0.479827 0.978788
-0.157903 -0.47971 0.978788
-0.154032 -0.48108 0.981818
-0.157788 -0.475022 0.978788
-0.15392 -0.47638 0.981818
-0.149566 -0.47627 0.981818
-0.153809 -0.47169 0.981818
-0.150137 -0.482454 0.984848
-0.149459 -0.471582 0.981818
-0.14556 -0.472933 0.984848
-0.149354 -0.466905 0.981818
-0.145664 -0.477634 0.984848
-0.145457 -0.468243 0.984848
-0.141537 -0.469583 0.987879
-0.145356 -0.463564 0.984848
-0.141636 -0.474286 0.987879
-0.141438 -0.464891 0.987879
-0.137076 -0.464795 0.987879
-0.141341 -0.46021 0.987879
-0.137171 -0.469485 0.987879
-0.136982 -0.460115 0.987879
-0.133033 -0.461434 0.990909
-0.13689 -0.455446 0.987879
-0.133124 -0.466127 0.990909
-0.132943 -0.456752 0.990909
-0.128579 -0.456664 0.990909
-0.132854 -0.45208 0.990909
-0.128665 -0.461346 0.990909
-0.128493 -0.451994 0.990909
-0.124514 -0.453292 0.993939
-0.128409 -0.447333 0.990909
-0.124597 -0.457976 0.993939
-0.124432 -0.448619 0.993939
-0.120066 -0.448539 0.993939
-0.123973 -0.442602 0.990909
-0.12051 -0.454593 0.99697
-0.119988 -0.443877 0.993939
-0.115979 -0.445154 0.99697
-0.119912 -0.439224 0.993939
-0.116406 -0.451197 1
-0.112356 -0.45249 1.00303
-0.116482 -0.455897 1
-0.11243 -0.457204 1.00303
-0.112284 -0.447787 1.00303
-0.108213 -0.44907 1.00606
-0.108282 -0.453786 1.00606
-0.108679 -0.459894 1.00909
-0.104429 -0.451707 1.01212
-0.104363 -0.446974 1.01212
-0.104496 -0.456451 1.01212
-0.104876 -0.462586 1.01515
-0.105258 -0.46876 1.01818
-0.109403 -0.467435 1.01515
-0.109476 -0.472226 1.01515
-0.105328 -0.473563 1.01818
-0.10955 -0.477027 1.01515
-0.113336 -0.474254 1.00909
-0.109952 -0.483277 1.01818
-0.113413 -0.479039 1.00909
-0.11715 -0.476241 1.00303
-0.113833 -0.485287 1.01212
-0.117232 -0.481008 1.00303
-0.11707 -0.471484 1.00303
-0.116637 -0.465328 1
-0.12112 -0.470141 1
-0.121203 -0.474884 1
-0.112919 -0.468071 1.00606
-0.112844 -0.463323 1.00606
-0.116559 -0.460608 1
-0.12059 -0.459291 0.99697
-0.120671 -0.463998 0.99697
-0.12468 -0.462671 0.993939
-0.125146 -0.4688 0.99697
-0.129147 -0.467462 0.993939
-0.125232 -0.47353 0.99697
-0.129236 -0.472179 0.993939
-0.133216 -0.470831 0.990909
-0.129327 -0.476907 0.993939
-0.125319 -0.478271 0.99697
-0.133309 -0.475546 0.990909
-0.137268 -0.474187 0.987879
-0.133404 -0.480272 0.990909
-0.129418 -0.481646 0.993939
-0.137366 -0.4789 0.987879
-0.141738 -0.479 0.987879
-0.137886 -0.485107 0.990909
-0.133908 -0.486492 0.993939
-0.14184 -0.483725 0.987879
-0.14577 -0.482346 0.984848
-0.142379 -0.48996 0.990909
-0.137987 -0.489857 0.990909
-0.146325 -0.488568 0.987879
-0.150247 -0.487179 0.984848
-0.146434 -0.493318 0.987879
-0.142485 -0.494724 0.990909
-0.150822 -0.49343 0.987879
-0.150936 -0.498193 0.987879
-0.146994 -0.499608 0.990909
-0.154854 -0.496781 0.984848
-0.154972 -0.501544 0.984848
-0.151051 -0.502969 0.987879
-0.147106 -0.504397 0.990909
-0.151168 -0.507757 0.987879
-0.14722 -0.509198 0.990909
-0.15557 -0.507877 0.987879
-0.159483 -0.506442 0.984848
-0.142811 -0.509086 0.990909
-0.142701 -0.504286 0.990909
-0.138721 -0.50572 0.993939
-0.142592 -0.499499 0.990909
-0.138827 -0.510533 0.993939
-0.138615 -0.50092 0.993939
-0.134614 -0.502344 0.99697
-0.138089 -0.494619 0.990909
-0.134307 -0.505616 0.993939
-0.134514 -0.497542 0.99697
-0.130887 -0.500468 1.00303
-0.134006 -0.491255 0.993939
-0.130985 -0.505298 1.00303
-0.130396 -0.494153 1
-0.125971 -0.49406 1
-0.129906 -0.48788 0.99697
-0.126445 -0.500373 1.00303
-0.125498 -0.487787 0.99697
-0.121828 -0.490663 1.00303
-0.125408 -0.483024 0.99697
-0.122285 -0.496963 1.00606
-0.121373 -0.484404 1
-0.117314 -0.485787 1.00303
-0.121655 -0.481092 1.00303
-0.118107 -0.493542 1.00909
-0.113994 -0.49494 1.01212
-0.118193 -0.498372 1.00909
-0.114076 -0.499785 1.01212
-0.113913 -0.490108 1.01212
-0.113817 -0.50313 1.00909
-0.114244 -0.509509 1.01212
-0.115014 -0.51747 1.01818
-0.110836 -0.518924 1.02121
-0.118811 -0.514477 1.01212
-0.107264 -0.523462 1.0303
-0.110753 -0.514001 1.02121
-0.110671 -0.509091 1.02121
-0.110591 -0.504192 1.02121
-0.110839 -0.500787 1.02424
-0.110433 -0.49443 1.02121
-0.110356 -0.489567 1.02121
-0.102405 -0.521844 1.02727
-0.130292 -0.507057 0.99697
-0.134 -0.508872 0.990909
-0.105713 -0.479801 1.02121
-0.102056 -0.479131 1.0303
-0.101989 -0.474272 1.0303
-0.101922 -0.469423 1.0303
-0.101557 -0.463218 1.02727
-0.101193 -0.457051 1.02424
-0.101129 -0.452262 1.02424
-0.100768 -0.446158 1.02121
-0.100706 -0.441403 1.02121
-0.100645 -0.436656 1.02121
-0.0970411 -0.440484 1.0303
-0.0928151 -0.441723 1.03333
-0.0964128 -0.433143 1.02424
-0.0970996 -0.445272 1.0303
-0.0974447 -0.451393 1.03333
-0.097791 -0.457552 1.03636
-0.0978523 -0.462397 1.03636
-0.0982008 -0.468619 1.03939
-0.098264 -0.473499 1.03939
-0.098328 -0.47839 1.03939
-0.098393 -0.483292 1.03939
-0.102726 -0.486849 1.03636
-0.107041 -0.490394 1.03333
-0.107743 -0.498207 1.03939
-0.108132 -0.504623 1.04242
-0.108523 -0.511079 1.04545
-0.108601 -0.516081 1.04545
-0.108365 -0.519584 1.04242
-0.0957861 -0.425868 1.01818
-0.100286 -0.430638 1.01818
-0.092162 -0.429615 1.02727
-0.0882016 -0.432097 1.03333
-0.0871168 -0.422312 1.02121
-0.082915 -0.423517 1.02424
-0.0870673 -0.417605 1.02121
-0.083699 -0.432047 1.03333
-0.082868 -0.418797 1.02424
-0.0833118 -0.416535 1.0303
-0.0930321 -0.438213 1.03636
-0.0890822 -0.445554 1.04242
-0.0895472 -0.443284 1.04848
-0.0781191 -0.35921 1.02727
-0.0793089 -0.369205 1.04242
-0.079347 -0.37391 1.04242
-0.0793857 -0.378622 1.04242
-0.0794249 -0.383342 1.04242
-0.0792337 -0.386941 1.03939
-0.0771612 -0.350404 1.01515
-0.0770569 -0.306007 1.01818
-0.0767969 -0.300599 1.01515
-0.0769958 -0.296992 1.01818
-0.077424 -0.294235 1.02424
-0.0769365 -0.288001 1.01818
-0.0766786 -0.28267 1.01515
-0.0731899 -0.286017 1.02727
-0.0731629 -0.281495 1.02727
-0.0731363 -0.276979 1.02727
-0.0768509 -0.274555 1.01818
-0.0768233 -0.270083 1.01818
-0.0731101 -0.272468 1.02727
-0.0730844 -0.267962 1.02727
-0.063449 -0.203522 1.01818
-0.0634319 -0.199124 1.01818
-0.0632265 -0.194149 1.01515
-0.190238 -0.438821 0.948485
-0.190107 -0.434327 0.948485
-0.185889 -0.434199 0.948485
-0.184234 -0.434486 0.939394
-0.0543869 -0.120149 1.01515
-0.0502355 -0.120499 1.01818
-0.0503763 -0.116506 1.02121
-0.0506428 -0.0997137 1.02727
-0.0553073 -0.0959186 1.03333
-0.050934 -0.0959108 1.03333
-0.0552993 -0.0915292 1.03333
-0.0591477 -0.0907321 1.02424
-0.0544807 -0.0858641 1.01818
-0.0543112 -0.0813003 1.01515
-0.0677592 -0.0603412 1.02424
-0.0639896 -0.0608693 1.03333
-0.0754989 -0.0467867 1.01212
-0.0759437 -0.0427584 1.01818
-0.284664 -0.472649 0.993939
-0.281206 -0.478679 0.99697
-0.304904 -0.506511 1.01212
-0.301158 -0.507784 1.01515
-0.301817 -0.504338 1.01818
-0.297155 -0.504102 1.01818
-0.301581 -0.49939 1.01818
-0.30831 -0.507582 1.02424
-0.297391 -0.509061 1.01818
-0.296923 -0.499157 1.01818
-0.307156 -0.501114 1.02121
-0.293382 -0.475219 1.00909
-0.0677088 -0.025678 1.02424
-0.0637547 -0.0258251 1.0303
-0.0685154 -0.0303619 1.03636
-0.063572 -0.0300904 1.02727
-0.176406 -0.0205681 0.975758
-0.167034 -0.0245277 0.969697
-0.0944549 0.183329 1.0303
-0.0941927 0.187165 1.02727
-0.21414 0.156365 0.993939
-0.214825 0.161101 0.99697
-0.243705 0.021109 0.993939
-0.245196 0.0169855 1
-0.283297 -0.2508 1
-0.283402 -0.255224 1
-0.28351 -0.259653 1
-0.283333 -0.285475 0.99697
-0.284315 -0.290811 1
-0.284437 -0.295285 1
0 0 0
0 0 0
0 0 0
0 0 0
0 0 0
0 0 0
0 0 0
0 0 0
0 0 0
0 0 0
0 0 0
0 0 0
0 0 0
0 0 0
0 0 0
0 0 0
0 0 0
0 0 0
0 0 0
0 0 0
0 0 0
0 0 0
0 0 0
0 0 0
0 0 0
0 0 0
0 0 0
0 0 0
0 0 0
0 0 0
0 0 0
0 0 0
0 0 0
0 0 0
0 0 0
0 0 0
0 0 0
0 0 0
0 0 0
0 0 0
0 0 0
0 0 0
0 0 0
0 0 0
0 0 0
0 0 0
0 0 0
0 0 0
0 0 0
0 0 0
0 0 0
0 0 0
0 0 0
0 0 0
0 0 0
0 0 0
0 0 0
0 0 0
0 0 0
0 0 0
0 0 0
0 0 0
0 0 0
0 0 0
0 0 0
0 0 0
0 0 0
0 0 0
0 0 0
0 0 0
0 0 0
0 0 0
0 0 0
0 0 0
0 0 0
0 0 0
0 0 0
0 0 0
0 0 0
0 0 0
0 0 0
0 0 0
0 0 0
0 0 0
0 0 0
0 0 0
0 0 0
0 0 0
0 0 0
0 0 0
0 0 0
0 0 0
0 0 0
0 0 0
0 0 0
0 0 0
0 0 0
0 0 0
0 0 0
0 0 0
0 0 0
0 0 0
0 0 0
0 0 0
0 0 0
0 0 0
0 0 0
0 0 0
0 0 0
0 0 0
0 0 0
0 0 0
0 0 0
0 0 0
0 0 0
0 0 0
0 0 0
0 0 0
0 0 0
0 0 0
0 0 0
0 0 0
0 0 0
0 0 0
0 0 0
0 0 0
0 0 0
0 0 0
0 0 0
0 0 0
0 0 0
0 0 0
0 0 0
0 0 0
0 0 0
0 0 0
0 0 0
0 0 0
0 0 0
0 0 0
0 0 0
0 0 0
0 0 0
0 0 0
0 0 0
0 0 0
0 0 0
0 0 0
0 0 0
0 0 0
0 0 0
0 0 0
0 0 0
0 0 0
0 0 0
0 0 0
0 0 0
0 0 0
0 0 0
0 0 0
0 0 0
0 0 0
0 0 0
0 0 0
0 0 0
0 0 0
0 0 0
0 0 0
0 0 0
0 0 0
0 0 0
0 0 0
0 0 0
0 0 0
0 0 0
0 0 0
0 0 0
0 0 0
0 0 0
0 0 0
0 0 0
0 0 0
0 0 0
0 0 0
0 0 0
0 0 0
0 0 0
0 0 0
0 0 0
0 0 0
0 0 0
0 0 0
0 0 0
0 0 0
0 0 0
0 0 0
0 0 0
0 0 0
0 0 0
0 0 0
0 0 0
0 0 0
0 0 0
0 0 0
0 0 0
0 0 0
0 0 0
0 0 0
0 0 0
0 0 0
0 0 0
0 0 0
0 0 0
0 0 0
0 0 0
0 0 0
0 0 0
0 0 0
0 0 0
0 0 0
0 0 0
0 0 0
0 0 0
0 0 0
0 0 0
0 0 0
0 0 0
0 0 0
0 0 0
0 0 0
0 0 0
0 0 0
0 0 0
0 0 0
0 0 0
0 0 0
0 0 0
0 0 0
0 0 0
0 0 0
0 0 0
0 0 0
0 0 0
0 0 0
0 0 0
0 0 0
0 0 0
0 0 0
0 0 0
0 0 0
0 0 0
0 0 0
0 0 0
0 0 0
0 0 0
0 0 0
0 0 0
0 0 0
0 0 0
0 0 0
0 0 0
0 0 0
0 0 0
0 0 0
0 0 0
