# .PCD v0.7 - Point Cloud Data file format
VERSION 0.7
FIELDS x y z
SIZE 4 4 4
TYPE F F F
COUNT 1 1 1
WIDTH 1652
HEIGHT 1
VIEWPOINT 0 0 0 1 0 0 0
POINTS 1652
DATA ascii
-0.0679066 -0.208029 0.957576
-0.0640247 -0.208667 0.960606
-0.0601178 -0.209307 0.963636
-0.064006 -0.204502 0.960606
-0.0601356 -0.213489 0.963636
-0.0599114 -0.204484 0.960606
-0.0678868 -0.203876 0.957576
-0.0678672 -0.199728 0.957576
-0.0639877 -0.200341 0.960606
-0.0598943 -0.200324 0.960606
-0.0639697 -0.196184 0.960606
-0.0598776 -0.196167 0.960606
-0.0678481 -0.195583 0.957576
-0.0678293 -0.191442 0.957576
-0.0637503 -0.191424 0.957576
-0.0598611 -0.192013 0.960606
-0.0637331 -0.187287 0.957576
-0.059845 -0.187864 0.960606
-0.0678108 -0.187305 0.957576
-0.0677927 -0.183171 0.957576
-0.0637161 -0.183154 0.957576
-0.0598292 -0.183717 0.960606
-0.0636995 -0.179024 0.957576
-0.059625 -0.179008 0.957576
-0.0675605 -0.178475 0.954545
-0.0675432 -0.174361 0.954545
-0.0636833 -0.174898 0.957576
-0.0596099 -0.174882 0.957576
-0.0636673 -0.170775 0.957576
-0.059595 -0.17076 0.957576
-0.0675262 -0.170251 0.954545
-0.0675095 -0.166144 0.954545
-0.0634503 -0.166128 0.954545
-0.0595805 -0.16664 0.957576
-0.063435 -0.162024 0.954545
-0.0595662 -0.162524 0.957576
-0.0674932 -0.16204 0.954545
-0.0634201 -0.157924 0.954545
-0.0593638 -0.15791 0.954545
-0.0632042 -0.153338 0.951515
-0.0593502 -0.153813 0.954545
-0.0554714 -0.154288 0.957576
-0.0593369 -0.149719 0.954545
-0.055484 -0.158398 0.957576
-0.0552835 -0.149706 0.954545
-0.06319 -0.149257 0.951515
-0.063176 -0.145178 0.951515
-0.0591356 -0.145165 0.951515
-0.0552714 -0.145615 0.954545
-0.0591229 -0.14109 0.951515
-0.0552596 -0.141527 0.954545
-0.0631624 -0.141103 0.951515
-0.0591105 -0.137017 0.951515
-0.0552481 -0.137442 0.954545
-0.0550615 -0.132936 0.951515
-0.0511879 -0.133349 0.954545
-0.0511983 -0.137431 0.954545
-0.0511778 -0.129269 0.954545
-0.0472801 -0.12967 0.957576
-0.0472893 -0.133762 0.957576
-0.0474206 -0.125978 0.960606
-0.0434858 -0.126367 0.963636
-0.0474118 -0.121878 0.960606
-0.0434941 -0.130482 0.963636
-0.0434778 -0.122254 0.963636
-0.0393948 -0.122246 0.963636
-0.04347 -0.118144 0.963636
-0.039402 -0.126359 0.963636
-0.0393878 -0.118136 0.963636
-0.0474032 -0.11778 0.960606
-0.0434624 -0.114036 0.963636
-0.039381 -0.114029 0.963636
-0.0393743 -0.109923 0.963636
-0.0355162 -0.110608 0.969697
-0.0355221 -0.114739 0.969697
-0.0315143 -0.115092 0.972727
-0.0355282 -0.118873 0.969697
-0.0315196 -0.119238 0.972727
-0.0315091 -0.110948 0.972727
-0.0273914 -0.110944 0.972727
-0.0273958 -0.115087 0.972727
-0.0273871 -0.106802 0.972727
-0.023343 -0.107131 0.975758
-0.0233466 -0.111285 0.975758
-0.0233396 -0.102979 0.975758
-0.0192708 -0.103296 0.978788
-0.0192736 -0.107461 0.978788
-0.0193279 -0.0994404 0.981818
-0.0151747 -0.0994382 0.981818
-0.0151767 -0.103614 0.981818
-0.0151728 -0.0952649 0.981818
-0.0110546 -0.0955574 0.984848
-0.0110558 -0.0997435 0.984848
-0.0110874 -0.0916545 0.987879
-0.00691028 -0.0916537 0.987879
-0.00690978 -0.0874588 0.987879
-0.00273332 -0.0874586 0.987879
-0.00678213 -0.0817333 0.969697
-0.011023 -0.103612 0.981818
-0.0110243 -0.107789 0.981818
-0.00682753 -0.107123 0.975758
-0.0151787 -0.107791 0.981818
-0.0151807 -0.111971 0.981818
-0.0110256 -0.111969 0.981818
-0.0192764 -0.111628 0.978788
-0.0192792 -0.115797 0.978788
-0.015136 -0.115795 0.978788
-0.0233502 -0.115442 0.975758
-0.023354 -0.119601 0.975758
-0.0192822 -0.119969 0.978788
-0.0274003 -0.119233 0.972727
-0.027405 -0.123382 0.972727
-0.0233578 -0.123762 0.975758
-0.031525 -0.123387 0.972727
-0.0355345 -0.123008 0.969697
-0.0315306 -0.127538 0.972727
-0.0274097 -0.127533 0.972727
-0.0355409 -0.127147 0.969697
-0.0355475 -0.131288 0.969697
-0.0315364 -0.131692 0.972727
-0.0394094 -0.130474 0.963636
-0.039417 -0.134592 0.963636
-0.0355542 -0.135431 0.969697
-0.0435025 -0.1346 0.963636
-0.0435112 -0.138721 0.963636
-0.0394247 -0.138712 0.963636
-0.0472988 -0.137857 0.957576
-0.0473086 -0.141955 0.957576
-0.0432463 -0.141946 0.957576
-0.0512089 -0.141516 0.954545
-0.0512197 -0.145604 0.954545
-0.0473185 -0.146055 0.957576
-0.0435291 -0.14697 0.963636
-0.0474784 -0.150634 0.960606
-0.0435384 -0.151099 0.963636
-0.0513935 -0.150169 0.957576
-0.0515675 -0.154764 0.960606
-0.0474889 -0.154753 0.960606
-0.0436848 -0.155719 0.966667
-0.0476494 -0.159376 0.963636
-0.0436945 -0.159867 0.966667
-0.0515792 -0.158887 0.960606
-0.0515911 -0.163012 0.960606
-0.0476603 -0.163515 0.963636
-0.0554969 -0.16251 0.957576
-0.0556858 -0.167154 0.960606
-0.0517661 -0.167668 0.963636
-0.0476715 -0.167656 0.963636
-0.0517786 -0.171813 0.963636
-0.0476829 -0.171801 0.963636
-0.0556993 -0.171286 0.960606
-0.0557131 -0.175421 0.960606
-0.0517913 -0.175961 0.963636
-0.0476945 -0.175949 0.963636
-0.0518043 -0.180113 0.963636
-0.0478564 -0.180667 0.966667
-0.0557272 -0.17956 0.960606
-0.0559174 -0.184282 0.963636
-0.0519805 -0.184847 0.966667
-0.0478686 -0.184835 0.966667
-0.0519941 -0.189019 0.966667
-0.047881 -0.189006 0.966667
-0.0559321 -0.188441 0.963636
-0.055947 -0.192603 0.963636
-0.0520079 -0.193194 0.966667
-0.0478936 -0.193181 0.966667
-0.052022 -0.197373 0.966667
-0.0479065 -0.19736 0.966667
-0.0559623 -0.196769 0.963636
-0.0559779 -0.200939 0.963636
-0.0520364 -0.201556 0.966667
-0.0479196 -0.201542 0.966667
-0.052051 -0.205743 0.966667
-0.0480832 -0.206373 0.969697
-0.0559937 -0.205113 0.963636
-0.0560099 -0.209291 0.963636
-0.0520659 -0.209933 0.966667
-0.0480969 -0.210577 0.969697
-0.0520811 -0.214127 0.966667
-0.0481108 -0.214784 0.969697
-0.0560263 -0.213472 0.963636
-0.0562192 -0.218342 0.966667
-0.0522598 -0.21901 0.969697
-0.0601536 -0.217675 0.963636
-0.0603612 -0.222563 0.966667
-0.0562363 -0.222545 0.966667
-0.0522756 -0.223226 0.969697
-0.0562537 -0.226752 0.966667
-0.0522917 -0.227446 0.969697
-0.06038 -0.22677 0.966667
-0.0603991 -0.230982 0.966667
-0.0562714 -0.230964 0.966667
-0.052308 -0.23167 0.969697
-0.0564659 -0.235917 0.969697
-0.0523246 -0.235899 0.969697
-0.0604185 -0.235198 0.966667
-0.0604383 -0.239419 0.966667
-0.0564842 -0.24015 0.969697
-0.0525051 -0.240883 0.972727
-0.0566795 -0.245152 0.972727
-0.0526859 -0.245897 0.975758
-0.0606479 -0.244408 0.969697
-0.060858 -0.249428 0.972727
-0.0568751 -0.250185 0.975758
-0.0648159 -0.248672 0.969697
-0.0648382 -0.25292 0.969697
-0.0608789 -0.253689 0.972727
-0.0568945 -0.254459 0.975758
-0.0607104 -0.257151 0.969697
-0.0567375 -0.257934 0.972727
-0.064861 -0.257173 0.969697
-0.0648841 -0.261431 0.969697
-0.0607319 -0.261408 0.969697
-0.0688215 -0.260638 0.966667
-0.0688465 -0.264888 0.966667
-0.0649076 -0.265693 0.969697
-0.0729893 -0.264914 0.966667
-0.0727875 -0.268325 0.963636
-0.0688719 -0.269142 0.966667
-0.07692 -0.268353 0.963636
-0.0769491 -0.272601 0.963636
-0.0728149 -0.272572 0.963636
-0.0810845 -0.272631 0.963636
-0.0811158 -0.276884 0.963636
-0.0772207 -0.277724 0.966667
-0.0852542 -0.276916 0.963636
-0.0852876 -0.281175 0.963636
-0.0814027 -0.282027 0.966667
-0.089429 -0.28121 0.963636
-0.0894648 -0.285475 0.963636
-0.0855899 -0.286337 0.966667
-0.081435 -0.286304 0.966667
-0.0856245 -0.290621 0.966667
-0.0814678 -0.290587 0.966667
-0.0897825 -0.290657 0.966667
-0.0898194 -0.294946 0.966667
-0.0856596 -0.29491 0.966667
-0.0817566 -0.2958 0.969697
-0.0859639 -0.300142 0.969697
-0.0817905 -0.300107 0.969697
-0.0898569 -0.299241 0.966667
-0.0901768 -0.304494 0.969697
-0.0860002 -0.304456 0.969697
-0.081825 -0.304421 0.969697
-0.0860371 -0.308776 0.969697
-0.0818599 -0.30874 0.969697
-0.0902156 -0.308815 0.969697
-0.0902549 -0.313141 0.969697
-0.0860745 -0.313102 0.969697
-0.0821513 -0.314044 0.972727
-0.0861124 -0.317435 0.969697
-0.0821874 -0.318389 0.972727
-0.0902948 -0.317474 0.969697
-0.0906176 -0.322818 0.972727
-0.0864202 -0.322778 0.972727
-0.0945212 -0.321855 0.969697
-0.0945643 -0.3262 0.969697
-0.0906589 -0.327177 0.972727
-0.0864594 -0.327137 0.972727
-0.0907007 -0.331543 0.972727
-0.0867686 -0.332534 0.975758
-0.0949037 -0.331586 0.972727
-0.0949482 -0.335958 0.972727
-0.0907431 -0.335914 0.972727
-0.0868091 -0.336919 0.975758
-0.091069 -0.341353 0.975758
-0.0868501 -0.341311 0.975758
-0.0949934 -0.340338 0.972727
-0.0953353 -0.345797 0.975758
-0.0911128 -0.345752 0.975758
-0.0992502 -0.344771 0.972727
-0.0992988 -0.349164 0.972727
-0.0953819 -0.350204 0.975758
-0.0914403 -0.351246 0.978788
-0.0954292 -0.354618 0.975758
-0.0914855 -0.355672 0.978788
-0.0993482 -0.353565 0.972727
-0.0993983 -0.357973 0.972727
-0.0954772 -0.359039 0.975758
-0.0915314 -0.360106 0.978788
-0.0955258 -0.363467 0.975758
-0.0915779 -0.364548 0.978788
-0.0994491 -0.362388 0.972727
-0.0998105 -0.367953 0.975758
-0.0955751 -0.367903 0.975758
-0.103724 -0.366864 0.972727
-0.103779 -0.371294 0.972727
-0.0998629 -0.372397 0.975758
-0.0956251 -0.372346 0.975758
-0.099916 -0.376849 0.975758
-0.0956759 -0.376796 0.975758
-0.104158 -0.376904 0.975758
-0.104214 -0.381364 0.975758
-0.0999699 -0.381308 0.975758
-0.0960246 -0.382439 0.978788
-0.100335 -0.386974 0.978788
-0.0960769 -0.38692 0.978788
-0.104271 -0.385832 0.975758
-0.104329 -0.390308 0.975758
-0.100391 -0.391463 0.978788
-0.10858 -0.390367 0.975758
-0.108979 -0.396079 0.978788
-0.104712 -0.396018 0.978788
-0.112897 -0.394915 0.975758
-0.112961 -0.39941 0.975758
-0.109041 -0.400586 0.978788
-0.117221 -0.399476 0.975758
-0.117289 -0.40398 0.975758
-0.113378 -0.405167 0.978788
-0.121554 -0.40405 0.975758
-0.121625 -0.408563 0.975758
-0.117723 -0.409761 0.978788
-0.125895 -0.408637 0.975758
-0.126362 -0.414443 0.978788
-0.122076 -0.414368 0.978788
-0.130245 -0.413237 0.975758
-0.130324 -0.417771 0.975758
-0.126438 -0.41899 0.978788
-0.134603 -0.417852 0.975758
-0.135105 -0.423707 0.978788
-0.130809 -0.423625 0.978788
-0.138971 -0.422481 0.975758
-0.139058 -0.427035 0.975758
-0.135189 -0.428274 0.978788
-0.143348 -0.427124 0.975758
-0.143439 -0.431689 0.975758
-0.139147 -0.431598 0.975758
-0.147735 -0.431782 0.975758
-0.14783 -0.436358 0.975758
-0.143532 -0.436263 0.975758
-0.152131 -0.436455 0.975758
-0.156435 -0.436556 0.975758
-0.152231 -0.441042 0.975758
-0.147927 -0.440943 0.975758
-0.156538 -0.441144 0.975758
-0.160848 -0.441249 0.975758
-0.156642 -0.445742 0.975758
-0.152332 -0.445639 0.975758
-0.161455 -0.447233 0.978788
-0.165784 -0.447344 0.978788
-0.161564 -0.451858 0.978788
-0.165897 -0.451969 0.978788
-0.166011 -0.456605 0.978788
-0.161675 -0.456492 0.978788
-0.161787 -0.461137 0.978788
-0.166126 -0.461252 0.978788
-0.167787 -0.470237 0.987879
-0.172173 -0.470357 0.987879
-0.172825 -0.476528 0.990909
-0.168422 -0.476405 0.990909
-0.17295 -0.481267 0.990909
-0.17009 -0.485557 1
-0.174135 -0.488991 0.99697
-0.178032 -0.487634 0.993939
-0.178708 -0.493914 0.99697
-0.182737 -0.497341 0.993939
-0.187321 -0.502289 0.993939
-0.191918 -0.507256 0.993939
-0.19207 -0.51209 0.993939
-0.196529 -0.512245 0.993939
-0.170731 -0.491836 1.00303
-0.166773 -0.493197 1.00606
-0.167399 -0.499529 1.00909
-0.166651 -0.488377 1.00606
-0.162673 -0.489729 1.00909
-0.165528 -0.480656 1
-0.162791 -0.494561 1.00909
-0.162556 -0.484907 1.00909
-0.161464 -0.477214 1.00303
-0.15736 -0.491474 1.00303
-0.162911 -0.499406 1.00909
-0.157951 -0.497788 1.00606
-0.15772 -0.488142 1.00606
-0.151985 -0.488392 0.99697
-0.147115 -0.486798 0.993939
-0.153021 -0.496173 1.00303
-0.14857 -0.496062 1.00303
-0.143686 -0.494455 1
-0.14868 -0.500885 1.00303
-0.143792 -0.499262 1
-0.153598 -0.502511 1.00606
-0.158069 -0.502628 1.00606
-0.153251 -0.505834 1.00303
-0.148792 -0.50572 1.00303
-0.158189 -0.507481 1.00606
-0.164137 -0.51219 1.01515
-0.157833 -0.510803 1.00303
-0.152905 -0.50914 1
-0.163282 -0.514014 1.00909
-0.163523 -0.505777 1.01212
-0.168788 -0.517229 1.01515
-0.161937 -0.514233 1
-0.157478 -0.514108 1
-0.16892 -0.522155 1.01515
-0.173452 -0.522289 1.01515
-0.152559 -0.51243 0.99697
-0.14857 -0.51387 1
-0.148906 -0.510567 1.00303
-0.144882 -0.511997 1.00606
-0.144121 -0.513756 1
-0.144336 -0.505609 1.00303
-0.139038 -0.502447 0.99697
-0.139566 -0.508804 1
-0.138934 -0.497644 0.99697
-0.134105 -0.49603 0.993939
-0.138409 -0.491355 0.993939
-0.134614 -0.502344 0.99697
-0.134006 -0.491255 0.993939
-0.129605 -0.491159 0.993939
-0.1335 -0.485009 0.990909
-0.129701 -0.495932 0.993939
-0.129116 -0.484914 0.990909
-0.137886 -0.485107 0.990909
-0.137787 -0.480369 0.990909
-0.14271 -0.486693 0.993939
-0.133404 -0.480272 0.990909
-0.129024 -0.480178 0.990909
-0.133309 -0.475546 0.990909
-0.128932 -0.475453 0.990909
-0.124558 -0.475364 0.990909
-0.128842 -0.47074 0.990909
-0.124646 -0.480087 0.990909
-0.124471 -0.470652 0.990909
-0.133216 -0.470831 0.990909
-0.133124 -0.466127 0.990909
-0.128359 -0.464612 0.987879
-0.124004 -0.464526 0.987879
-0.128272 -0.459935 0.987879
-0.12392 -0.459849 0.987879
-0.132626 -0.460023 0.987879
-0.132536 -0.455355 0.987879
-0.128185 -0.455268 0.987879
-0.123837 -0.455184 0.987879
-0.127707 -0.449229 0.984848
-0.123375 -0.449146 0.984848
-0.131635 -0.447933 0.981818
-0.131549 -0.443314 0.981818
-0.127231 -0.443229 0.981818
-0.13545 -0.442033 0.978788
-0.135362 -0.437437 0.978788
-0.13976 -0.442123 0.978788
-0.131058 -0.437351 0.978788
-0.139669 -0.437526 0.978788
-0.143626 -0.440847 0.975758
-0.135275 -0.432851 0.978788
-0.130974 -0.432766 0.978788
-0.130891 -0.428191 0.978788
-0.126595 -0.42811 0.978788
-0.127067 -0.434023 0.981818
-0.126516 -0.423545 0.978788
-0.122225 -0.423468 0.978788
-0.12268 -0.429357 0.981818
-0.12215 -0.418914 0.978788
-0.117864 -0.418841 0.978788
-0.118302 -0.424705 0.981818
-0.117793 -0.414296 0.978788
-0.113512 -0.414227 0.978788
-0.11358 -0.41877 0.978788
-0.113444 -0.409693 0.978788
-0.109168 -0.409627 0.978788
-0.109571 -0.415442 0.981818
-0.109104 -0.405102 0.978788
-0.104832 -0.40504 0.978788
-0.104893 -0.409564 0.978788
-0.104771 -0.400525 0.978788
-0.100504 -0.400466 0.978788
-0.100873 -0.406234 0.981818
-0.100447 -0.39596 0.978788
-0.0961837 -0.395905 0.978788
-0.0962382 -0.40041 0.978788
-0.0961299 -0.391408 0.978788
-0.0921553 -0.392568 0.981818
-0.0922067 -0.397077 0.981818
-0.0921046 -0.388066 0.981818
-0.0878363 -0.388017 0.981818
-0.0917705 -0.382388 0.978788
-0.0878845 -0.392518 0.981818
-0.0877888 -0.383524 0.981818
-0.0837823 -0.384661 0.984848
-0.0877419 -0.379039 0.981818
-0.0838275 -0.389168 0.984848
-0.0837377 -0.380163 0.984848
-0.0917213 -0.377917 0.978788
-0.0916728 -0.373453 0.978788
-0.087425 -0.373406 0.978788
-0.0834362 -0.374517 0.981818
-0.0873796 -0.36895 0.978788
-0.083393 -0.370048 0.981818
-0.091625 -0.368996 0.978788
-0.0873347 -0.364502 0.978788
-0.0833503 -0.365587 0.981818
-0.0872906 -0.360061 0.978788
-0.0833083 -0.361133 0.981818
-0.0793011 -0.362207 0.984848
-0.0832668 -0.356687 0.981818
-0.079341 -0.366674 0.984848
-0.0790179 -0.356647 0.981818
-0.087247 -0.355628 0.978788
-0.087204 -0.351202 0.978788
-0.0832259 -0.352248 0.981818
-0.0789792 -0.352208 0.981818
-0.0831856 -0.347815 0.981818
-0.0789411 -0.347776 0.981818
-0.0871616 -0.346783 0.978788
-0.0831459 -0.34339 0.981818
-0.0789035 -0.343352 0.981818
-0.0828502 -0.337926 0.978788
-0.0788665 -0.338934 0.981818
-0.0748579 -0.339944 0.984848
-0.0785867 -0.33349 0.978788
-0.0748929 -0.344375 0.984848
-0.0745931 -0.334488 0.981818
-0.0828117 -0.333528 0.978788
-0.0825175 -0.328117 0.975758
-0.0785508 -0.3291 0.978788
-0.0745592 -0.330084 0.981818
-0.0782723 -0.32371 0.975758
-0.0740657 -0.323676 0.975758
-0.0822241 -0.322741 0.972727
-0.0779946 -0.318354 0.972727
-0.0740329 -0.319312 0.975758
-0.0779605 -0.314009 0.972727
-0.0740007 -0.314954 0.975758
-0.0697991 -0.314923 0.975758
-0.0737391 -0.309638 0.972727
-0.0700463 -0.320272 0.978788
-0.0697693 -0.310572 0.975758
-0.0779268 -0.309671 0.972727
-0.0778937 -0.305338 0.972727
-0.0737079 -0.305306 0.972727
-0.0697398 -0.306227 0.975758
-0.0736771 -0.30098 0.972727
-0.0697108 -0.301888 0.975758
-0.077861 -0.301012 0.972727
-0.0775864 -0.295767 0.969697
-0.0736468 -0.29666 0.972727
-0.0696822 -0.297555 0.975758
-0.0733875 -0.291435 0.969697
-0.0694378 -0.292317 0.972727
-0.0775548 -0.291466 0.969697
-0.0775237 -0.28717 0.969697
-0.0733582 -0.28714 0.969697
-0.0694101 -0.288009 0.972727
-0.0731002 -0.281966 0.966667
-0.0691668 -0.282822 0.969697
-0.0772508 -0.281995 0.966667
-0.0730718 -0.277695 0.966667
-0.06914 -0.278538 0.969697
-0.0688977 -0.273402 0.966667
-0.0649556 -0.274234 0.969697
-0.0649803 -0.278512 0.969697
-0.0649314 -0.269961 0.969697
-0.0609659 -0.270782 0.972727
-0.0609886 -0.275068 0.972727
-0.0609437 -0.266501 0.972727
-0.0569547 -0.26731 0.975758
-0.0571523 -0.272447 0.978788
-0.0569343 -0.263021 0.975758
-0.0529218 -0.263818 0.978788
-0.0529406 -0.26812 0.978788
-0.0527395 -0.258718 0.975758
-0.0488672 -0.260308 0.981818
-0.0527214 -0.25444 0.975758
-0.0488841 -0.264617 0.981818
-0.0488505 -0.256003 0.981818
-0.0447907 -0.256777 0.984848
-0.0488341 -0.251703 0.981818
-0.0448058 -0.261095 0.984848
-0.0447758 -0.252464 0.984848
-0.0527035 -0.250166 0.975758
-0.0486672 -0.246644 0.978788
-0.0447611 -0.248156 0.984848
-0.0485008 -0.241617 0.975758
-0.0444713 -0.242352 0.978788
-0.0405414 -0.243839 0.984848
-0.0444572 -0.23808 0.978788
-0.0405543 -0.248142 0.984848
-0.0405286 -0.239541 0.984848
-0.0484853 -0.237357 0.975758
-0.0483195 -0.232379 0.972727
-0.0443058 -0.233088 0.975758
-0.0403915 -0.234523 0.981818
-0.0441546 -0.228127 0.972727
-0.0402546 -0.229536 0.978788
-0.048154 -0.227431 0.969697
-0.0481394 -0.223211 0.969697
-0.0441413 -0.223894 0.972727
-0.0402426 -0.225277 0.978788
-0.0441282 -0.219666 0.972727
-0.0402308 -0.221022 0.978788
-0.048125 -0.218995 0.969697
-0.0441154 -0.215442 0.972727
-0.0400947 -0.216101 0.975758
-0.0441027 -0.211222 0.972727
-0.0400834 -0.211868 0.975758
-0.0360388 -0.212515 0.978788
-0.0400722 -0.207639 0.975758
-0.036272 -0.218103 0.984848
-0.0360289 -0.208273 0.978788
-0.0440903 -0.207005 0.972727
-0.0440782 -0.202793 0.972727
-0.0400613 -0.203413 0.975758
-0.0359077 -0.203403 0.975758
-0.0400506 -0.199192 0.975758
-0.0358982 -0.199182 0.975758
-0.0439289 -0.197966 0.969697
-0.0439172 -0.193774 0.969697
-0.04004 -0.194974 0.975758
-0.0358889 -0.194965 0.975758
-0.0399054 -0.190168 0.972727
-0.0358797 -0.190751 0.975758
-0.0439057 -0.189586 0.969697
-0.0438945 -0.185402 0.969697
-0.0398952 -0.185971 0.972727
-0.0357594 -0.185962 0.972727
-0.0398853 -0.181777 0.972727
-0.0357506 -0.181768 0.972727
-0.0438835 -0.181222 0.969697
-0.0438726 -0.177044 0.969697
-0.0398756 -0.177587 0.972727
-0.035742 -0.177578 0.972727
-0.0398661 -0.173401 0.972727
-0.0357336 -0.173392 0.972727
-0.043862 -0.17287 0.969697
-0.0437146 -0.168173 0.966667
-0.0397326 -0.16869 0.969697
-0.0357253 -0.169209 0.972727
-0.0395993 -0.164009 0.966667
-0.0357172 -0.165029 0.972727
-0.0437044 -0.164018 0.966667
-0.0395904 -0.159858 0.966667
-0.0355981 -0.160351 0.969697
-0.0395817 -0.15571 0.966667
-0.0355903 -0.15619 0.969697
-0.0316721 -0.157159 0.975758
-0.0355828 -0.152033 0.969697
-0.0316789 -0.161346 0.975758
-0.0316655 -0.152976 0.975758
-0.0395732 -0.151565 0.966667
-0.0394408 -0.146961 0.963636
-0.0355754 -0.147878 0.969697
-0.0315607 -0.148333 0.972727
-0.0355682 -0.143726 0.969697
-0.0315544 -0.144169 0.972727
-0.0394327 -0.142835 0.963636
-0.0355611 -0.139577 0.969697
-0.0315483 -0.140007 0.972727
-0.0315422 -0.135848 0.972727
-0.0274196 -0.135842 0.972727
-0.0275101 -0.140437 0.975758
-0.0274146 -0.131686 0.972727
-0.0233657 -0.132092 0.975758
-0.0233699 -0.136261 0.975758
-0.0233617 -0.127926 0.975758
-0.0192883 -0.128319 0.978788
-0.0192915 -0.132499 0.978788
-0.0192852 -0.124143 0.978788
-0.0151403 -0.12414 0.978788
-0.0151426 -0.128317 0.978788
-0.0151381 -0.119966 0.978788
-0.0110282 -0.120336 0.981818
-0.0109956 -0.124138 0.978788
-0.0110269 -0.116151 0.981818
-0.00689223 -0.116509 0.984848
-0.00689279 -0.120706 0.984848
-0.00687048 -0.111968 0.981818
-0.00272357 -0.116509 0.984848
-0.00272332 -0.120706 0.984848
-0.00687214 -0.124522 0.981818
-0.010997 -0.128315 0.978788
-0.00680908 -0.127519 0.972727
-0.0109984 -0.132494 0.978788
-0.00683087 -0.132083 0.975758
-0.0151449 -0.132496 0.978788
-0.0151473 -0.136678 0.978788
-0.0109999 -0.136676 0.978788
-0.0192947 -0.13668 0.978788
-0.0192981 -0.140865 0.978788
-0.0151497 -0.140862 0.978788
-0.0233741 -0.140433 0.975758
-0.023451 -0.145056 0.978788
-0.0193612 -0.145501 0.981818
-0.0275154 -0.144612 0.975758
-0.0275208 -0.148789 0.975758
-0.0234554 -0.149246 0.978788
-0.0193647 -0.149704 0.981818
-0.02346 -0.15344 0.978788
-0.0193683 -0.153911 0.981818
-0.0275263 -0.15297 0.975758
-0.0275319 -0.157153 0.975758
-0.0234646 -0.157636 0.978788
-0.0193719 -0.15812 0.981818
-0.023542 -0.162336 0.981818
-0.0193756 -0.162332 0.981818
-0.0275376 -0.161339 0.975758
-0.0275435 -0.165529 0.975758
-0.0235468 -0.166551 0.981818
-0.0316858 -0.165535 0.975758
-0.0316928 -0.169728 0.975758
-0.0277206 -0.170776 0.981818
-0.0235518 -0.17077 0.981818
-0.0277267 -0.174998 0.981818
-0.0236296 -0.175532 0.984848
-0.0317 -0.173924 0.975758
-0.0317074 -0.178123 0.975758
-0.027733 -0.179223 0.981818
-0.0236347 -0.17977 0.984848
-0.027825 -0.184018 0.984848
-0.0237127 -0.184578 0.987879
-0.0318133 -0.182893 0.978788
-0.031821 -0.187112 0.978788
-0.0320259 -0.19252 0.984848
-0.0280952 -0.194289 0.993939
-0.0320339 -0.196772 0.984848
-0.028102 -0.198581 0.993939
-0.0279172 -0.188843 0.987879
-0.0238636 -0.189995 0.993939
-0.0239419 -0.194875 0.99697
-0.0197034 -0.19487 0.99697
-0.0239476 -0.19918 0.99697
-0.0197078 -0.199175 0.99697
-0.0196391 -0.18999 0.993939
-0.0155089 -0.191145 1
-0.0196349 -0.185706 0.993939
-0.015512 -0.195459 1
-0.0154588 -0.186268 0.99697
-0.0112571 -0.186832 1
-0.0154558 -0.181975 0.99697
-0.011259 -0.191142 1
-0.011187 -0.181419 0.993939
-0.0195709 -0.180872 0.990909
-0.0195668 -0.176608 0.990909
-0.0154528 -0.177684 0.99697
-0.0112193 -0.177682 0.99697
-0.0154499 -0.173397 0.99697
-0.0112175 -0.173395 0.99697
-0.0195628 -0.172347 0.990909
-0.0194393 -0.167061 0.984848
-0.0153531 -0.168086 0.990909
-0.0111475 -0.168084 0.990909
-0.0153034 -0.163331 0.987879
-0.0110776 -0.162827 0.984848
-0.0110759 -0.158602 0.984848
-0.00689954 -0.167054 0.984848
-0.0152068 -0.158116 0.981818
-0.0152042 -0.153907 0.981818
-0.0110743 -0.15438 0.984848
-0.0111067 -0.150623 0.987879
-0.0152016 -0.149701 0.981818
-0.015199 -0.145498 0.981818
-0.0110711 -0.145945 0.984848
-0.00689632 -0.145944 0.984848
-0.0110014 -0.14086 0.978788
-0.00683206 -0.140423 0.975758
-0.00683146 -0.136251 0.975758
-0.00269645 -0.144597 0.975758
-0.00268775 -0.148312 0.972727
-0.00687573 -0.149698 0.981818
-0.00687636 -0.153904 0.981818
-0.00685577 -0.157625 0.978788
-0.00265321 -0.158818 0.960606
-0.00264555 -0.150104 0.957576
0.00141104 -0.14963 0.954545
-0.00262772 -0.1614 0.951515
-0.00687765 -0.162325 0.981818
-0.00270265 -0.170232 0.978788
-0.00694268 -0.17234 0.990909
-0.00700707 -0.178221 1
-0.00275244 -0.177681 0.99697
-0.0112609 -0.195456 1
-0.0112629 -0.199774 1
-0.0155152 -0.199777 1
-0.0155185 -0.204098 1
-0.011265 -0.204096 1
-0.0197123 -0.203484 0.99697
-0.0239534 -0.203489 0.99697
-0.0197169 -0.207796 0.99697
-0.0155218 -0.208424 1
-0.0238864 -0.20717 0.993939
-0.0280304 -0.206545 0.990909
-0.0239652 -0.212118 0.99697
-0.0196616 -0.211468 0.993939
-0.0280377 -0.210835 0.990909
-0.0280233 -0.202258 0.990909
-0.0320589 -0.209553 0.984848
-0.028045 -0.215129 0.990909
-0.0238984 -0.21578 0.993939
-0.0321662 -0.214479 0.987879
-0.032175 -0.218765 0.987879
-0.0280525 -0.219428 0.990909
-0.0239046 -0.220092 0.993939
-0.0280602 -0.22373 0.990909
-0.0239109 -0.224407 0.993939
-0.0321839 -0.223054 0.987879
-0.0362823 -0.22238 0.984848
-0.0321931 -0.227348 0.987879
-0.0280679 -0.228037 0.990909
-0.0362928 -0.226661 0.984848
-0.0363035 -0.230946 0.984848
-0.0322024 -0.231646 0.987879
-0.0280758 -0.232348 0.990909
-0.0322118 -0.235948 0.987879
-0.0281697 -0.237387 0.993939
-0.0363143 -0.235235 0.984848
-0.0364371 -0.240266 0.987879
-0.0324191 -0.241729 0.993939
-0.0282639 -0.242457 0.99697
-0.0324289 -0.246067 0.993939
-0.0282722 -0.246808 0.99697
-0.0364484 -0.244577 0.987879
-0.0364598 -0.248894 0.987879
-0.0324389 -0.25041 0.993939
-0.0282807 -0.251164 0.99697
-0.0324491 -0.254757 0.993939
-0.0282894 -0.255524 0.99697
-0.0364715 -0.253214 0.987879
-0.0405674 -0.25245 0.984848
-0.0365952 -0.25833 0.990909
-0.0324594 -0.259109 0.993939
-0.0407056 -0.257553 0.987879
-0.0407192 -0.261884 0.987879
-0.0366073 -0.262674 0.990909
-0.0324699 -0.263466 0.993939
-0.0366195 -0.267023 0.990909
-0.0325796 -0.268645 0.99697
-0.0407331 -0.26622 0.987879
-0.0448212 -0.265418 0.984848
-0.0407471 -0.27056 0.987879
-0.036632 -0.271377 0.990909
-0.0449748 -0.270575 0.987879
-0.0489014 -0.268932 0.981818
-0.0449908 -0.274922 0.987879
-0.0407614 -0.274906 0.987879
-0.0489189 -0.273252 0.981818
-0.0529597 -0.272427 0.978788
-0.0489366 -0.277577 0.981818
-0.045007 -0.279273 0.987879
-0.0529791 -0.276739 0.978788
-0.0571734 -0.276759 0.978788
-0.0531629 -0.281926 0.981818
-0.0491058 -0.282777 0.984848
-0.0571948 -0.281077 0.978788
-0.0612016 -0.280229 0.975758
-0.0572166 -0.2854 0.978788
-0.053183 -0.286262 0.981818
-0.061225 -0.284539 0.975758
-0.0652084 -0.28368 0.972727
-0.061439 -0.289751 0.978788
-0.0574159 -0.290625 0.981818
-0.0652339 -0.287982 0.972727
-0.065463 -0.293201 0.975758
-0.0614633 -0.294086 0.978788
-0.0574384 -0.294973 0.981818
-0.0614879 -0.298426 0.978788
-0.0574612 -0.299326 0.981818
-0.0656927 -0.298452 0.978788
-0.0657196 -0.302798 0.978788
-0.0615128 -0.302772 0.978788
-0.0574844 -0.303685 0.981818
-0.0615381 -0.307123 0.978788
-0.0575079 -0.30805 0.981818
-0.0657468 -0.30715 0.978788
-0.0657744 -0.311508 0.978788
-0.0617545 -0.312445 0.981818
-0.0577094 -0.313385 0.984848
-0.0617806 -0.316823 0.981818
-0.0577337 -0.317775 0.984848
-0.0658024 -0.315872 0.978788
-0.0660347 -0.321234 0.981818
-0.0618072 -0.321206 0.981818
-0.0579361 -0.323163 0.987879
-0.0622159 -0.327606 0.987879
-0.0660636 -0.325624 0.981818
-0.0700772 -0.324649 0.978788
-0.066297 -0.331039 0.984848
-0.0624343 -0.333047 0.990909
-0.0703256 -0.330051 0.981818
-0.0703574 -0.334455 0.981818
-0.066531 -0.336488 0.987879
-0.0624623 -0.337491 0.990909
-0.0665614 -0.340925 0.987879
-0.0624908 -0.341941 0.990909
-0.0708243 -0.340956 0.987879
-0.0708573 -0.3454 0.987879
-0.0665923 -0.345368 0.987879
-0.0627108 -0.347457 0.993939
-0.066828 -0.350892 0.990909
-0.0627401 -0.351934 0.993939
-0.0708907 -0.349851 0.987879
-0.0749284 -0.348813 0.984848
-0.0709247 -0.354309 0.987879
-0.0668598 -0.355363 0.990909
-0.0749645 -0.353258 0.984848
-0.0752318 -0.35881 0.987879
-0.0711768 -0.359875 0.990909
-0.0668921 -0.359841 0.990909
-0.0712118 -0.364361 0.990909
-0.0669249 -0.364327 0.990909
-0.075269 -0.363283 0.987879
-0.0753067 -0.367763 0.987879
-0.0712473 -0.368854 0.990909
-0.0669581 -0.36882 0.990909
-0.0712834 -0.373355 0.990909
-0.0669918 -0.37332 0.990909
-0.0753449 -0.372251 0.987879
-0.0793814 -0.371149 0.984848
-0.0753837 -0.376746 0.987879
-0.0713199 -0.377864 0.990909
-0.0796668 -0.376786 0.987879
-0.0797085 -0.38129 0.987879
-0.075423 -0.381249 0.987879
-0.0713569 -0.38238 0.990909
-0.0754629 -0.38576 0.987879
-0.0713945 -0.386904 0.990909
-0.0797508 -0.385801 0.987879
-0.0797937 -0.390321 0.987879
-0.0755033 -0.390279 0.987879
-0.0714326 -0.391436 0.990909
-0.0755443 -0.394806 0.987879
-0.0714712 -0.395977 0.990909
-0.0798372 -0.394848 0.987879
-0.0838733 -0.393682 0.984848
-0.0798813 -0.399384 0.987879
-0.0755858 -0.399341 0.987879
-0.0839198 -0.398204 0.984848
-0.0879334 -0.397027 0.981818
-0.0839669 -0.402735 0.984848
-0.079926 -0.403928 0.987879
-0.0879829 -0.401545 0.981818
-0.0922587 -0.401596 0.981818
-0.0883048 -0.407324 0.984848
-0.0840147 -0.407275 0.984848
-0.0923116 -0.406123 0.981818
-0.0965916 -0.406177 0.981818
-0.0926502 -0.411925 0.984848
-0.0883559 -0.411873 0.984848
-0.0966477 -0.410713 0.981818
-0.100932 -0.410771 0.981818
-0.0967047 -0.415258 0.981818
-0.0927046 -0.416484 0.984848
-0.100992 -0.415317 0.981818
-0.10528 -0.415378 0.981818
-0.101364 -0.421168 0.984848
-0.0970611 -0.421108 0.984848
-0.105344 -0.419934 0.981818
-0.109637 -0.419999 0.981818
-0.105408 -0.424499 0.981818
-0.101426 -0.425745 0.984848
-0.109704 -0.424564 0.981818
-0.114002 -0.424633 0.981818
-0.109771 -0.429139 0.981818
-0.105798 -0.430397 0.984848
-0.114072 -0.429209 0.981818
-0.118375 -0.429281 0.981818
-0.114144 -0.433794 0.981818
-0.110179 -0.435062 0.984848
-0.118449 -0.433868 0.981818
-0.122757 -0.433944 0.981818
-0.118891 -0.439817 0.984848
-0.114569 -0.439742 0.984848
-0.122836 -0.438541 0.981818
-0.127148 -0.438621 0.981818
-0.123294 -0.444515 0.984848
-0.118967 -0.444437 0.984848
-0.114643 -0.444361 0.984848
-0.119045 -0.449067 0.984848
-0.11507 -0.450371 0.987879
-0.110731 -0.450297 0.987879
-0.115146 -0.455024 0.987879
-0.110804 -0.454949 0.987879
-0.11949 -0.455102 0.987879
-0.110659 -0.445655 0.987879
-0.106325 -0.445585 0.987879
-0.110249 -0.43967 0.984848
-0.106394 -0.450226 0.987879
-0.105931 -0.439602 0.984848
-0.101928 -0.440888 0.987879
-0.105864 -0.434994 0.984848
-0.101993 -0.445518 0.987879
-0.101551 -0.434929 0.984848
-0.0975389 -0.436205 0.987879
-0.101488 -0.430333 0.984848
-0.0976002 -0.440825 0.987879
-0.0974784 -0.431595 0.987879
-0.0931583 -0.431537 0.987879
-0.0974187 -0.426995 0.987879
-0.0935019 -0.437484 0.990909
-0.0931014 -0.426937 0.987879
-0.0890581 -0.428191 0.990909
-0.0927598 -0.421051 0.984848
-0.0891123 -0.432804 0.990909
-0.0887323 -0.422292 0.987879
-0.084421 -0.42224 0.987879
-0.0884077 -0.41643 0.984848
-0.0847307 -0.428139 0.990909
-0.084371 -0.417661 0.987879
-0.0803094 -0.418893 0.990909
-0.0843218 -0.41309 0.987879
-0.0806025 -0.424782 0.993939
-0.0800172 -0.413042 0.987879
-0.0759462 -0.414264 0.990909
-0.0799713 -0.408481 0.987879
-0.0759903 -0.418848 0.990909
-0.0759028 -0.409689 0.990909
-0.0718092 -0.4109 0.993939
-0.07586 -0.405123 0.990909
-0.0718501 -0.415489 0.993939
-0.0717688 -0.406321 0.993939
-0.0674469 -0.406282 0.993939
-0.0715103 -0.400525 0.990909
-0.0676904 -0.412114 0.99697
-0.0674097 -0.401712 0.993939
-0.0632838 -0.402901 0.99697
-0.0673729 -0.39715 0.993939
-0.0633186 -0.407484 0.99697
-0.0632495 -0.398325 0.99697
-0.0591007 -0.399503 1
-0.0632156 -0.393758 0.99697
-0.0591326 -0.404092 1
-0.0590693 -0.394923 1
-0.0673367 -0.392596 0.993939
-0.067301 -0.388051 0.993939
-0.0631823 -0.389199 0.99697
-0.0590383 -0.39035 1
-0.0631493 -0.384648 0.99697
-0.0588289 -0.384617 0.99697
-0.0672657 -0.383513 0.993939
-0.067231 -0.378984 0.993939
-0.0631169 -0.380106 0.99697
-0.0587988 -0.380075 0.99697
-0.0630849 -0.375571 0.99697
-0.0587692 -0.37554 0.99697
-0.0546199 -0.376653 1
-0.0587399 -0.371013 0.99697
-0.0546473 -0.381201 1
-0.0545929 -0.372113 1
-0.0628617 -0.369915 0.993939
-0.0628306 -0.365409 0.993939
-0.0587111 -0.366493 0.99697
-0.0545663 -0.36758 1
-0.0586827 -0.361981 0.99697
-0.0545401 -0.363054 1
-0.0628 -0.36091 0.993939
-0.0627698 -0.356419 0.993939
-0.0586547 -0.357476 0.99697
-0.054349 -0.35745 0.99697
-0.058627 -0.352979 0.99697
-0.0543236 -0.352952 0.99697
-0.050173 -0.354001 1
-0.0542985 -0.348462 0.99697
-0.0501963 -0.358512 1
-0.0501501 -0.349497 1
-0.0584217 -0.347429 0.993939
-0.0583949 -0.342959 0.993939
-0.0542738 -0.343979 0.99697
-0.0501274 -0.345001 1
-0.0542494 -0.339502 0.99697
-0.0499533 -0.339479 0.99697
-0.0581905 -0.337464 0.990909
-0.0581646 -0.333021 0.990909
-0.0540606 -0.334014 0.993939
-0.0499313 -0.33501 0.99697
-0.054037 -0.329565 0.993939
-0.0499097 -0.330547 0.99697
-0.0579613 -0.327579 0.987879
-0.0538491 -0.32413 0.990909
-0.0498884 -0.326091 0.99697
-0.0536616 -0.318729 0.987879
-0.0495642 -0.319685 0.990909
-0.0455801 -0.321621 0.99697
-0.0495437 -0.315269 0.990909
-0.0457377 -0.327061 1
-0.0454229 -0.316213 0.993939
-0.0536392 -0.314326 0.987879
-0.0534526 -0.308978 0.984848
-0.049372 -0.309907 0.987879
-0.0454045 -0.311789 0.993939
-0.049352 -0.305516 0.987879
-0.0452479 -0.306434 0.990909
-0.0534308 -0.3046 0.984848
-0.0534094 -0.300228 0.984848
-0.0493324 -0.301131 0.987879
-0.0452301 -0.302036 0.990909
-0.0491619 -0.295841 0.984848
-0.0452126 -0.297644 0.990909
-0.0533884 -0.295861 0.984848
-0.0532034 -0.290604 0.981818
-0.0491429 -0.291481 0.984848
-0.0450571 -0.29236 0.987879
-0.0491242 -0.287126 0.984848
-0.0450402 -0.287992 0.987879
-0.0409308 -0.28886 0.990909
-0.0450234 -0.28363 0.987879
-0.040946 -0.293241 0.990909
-0.0409158 -0.284484 0.990909
-0.0367827 -0.28534 0.993939
-0.0407759 -0.279258 0.987879
-0.036796 -0.289729 0.993939
-0.0367696 -0.280957 0.993939
-0.0326128 -0.281801 0.99697
-0.0367567 -0.276579 0.993939
-0.0326242 -0.286198 0.99697
-0.0326016 -0.277411 0.99697
-0.0284209 -0.278243 1
-0.0325905 -0.273025 0.99697
-0.0286028 -0.28436 1.00606
-0.0283254 -0.273015 0.99697
-0.0284023 -0.269451 1
-0.0283932 -0.265063 1
-0.0242649 -0.266661 1.00606
-0.0198447 -0.265048 1
-0.0241845 -0.261461 1.00303
-0.0198389 -0.260665 1
-0.0282982 -0.259889 0.99697
-0.0241772 -0.257069 1.00303
-0.0241701 -0.252683 1.00303
-0.024236 -0.249051 1.00606
-0.0201225 -0.251295 1.01515
-0.0201281 -0.25573 1.01515
-0.0242291 -0.24466 1.00606
-0.0240764 -0.238827 1
-0.0198115 -0.238821 1
-0.0200737 -0.259393 1.01212
-0.0285263 -0.287927 1.00303
-0.0244502 -0.290527 1.01212
-0.024361 -0.280764 1.00909
-0.0242801 -0.275496 1.00606
-0.0244421 -0.286065 1.01212
-0.0200972 -0.277148 1.01212
-0.0244187 -0.272709 1.01212
-0.0287087 -0.294122 1.00909
-0.032735 -0.291483 1
-0.0287187 -0.298582 1.00909
-0.032846 -0.2968 1.00303
-0.0369217 -0.295019 0.99697
-0.0330565 -0.30306 1.00909
-0.0370477 -0.300343 1
-0.0410867 -0.298537 0.993939
-0.0370617 -0.304775 1
-0.0412278 -0.303867 0.99697
-0.0412439 -0.308292 0.99697
-0.037076 -0.309213 1
-0.0370904 -0.313658 1
-0.0412601 -0.312723 0.99697
-0.0414021 -0.318124 1
-0.0373299 -0.320036 1.00606
-0.0374574 -0.325497 1.00909
-0.0415445 -0.323558 1.00303
-0.0415616 -0.328034 1.00303
-0.0374726 -0.33 1.00909
-0.033332 -0.331968 1.01515
-0.037488 -0.33451 1.00909
-0.041579 -0.332517 1.00303
-0.0333187 -0.327437 1.01515
-0.0332062 -0.32195 1.01212
-0.0331933 -0.317446 1.01212
-0.0331806 -0.312948 1.01212
-0.0330688 -0.307533 1.00909
-0.0457571 -0.331531 1
-0.0415966 -0.337007 1.00303
-0.0376163 -0.340044 1.01212
-0.0457767 -0.336007 1
-0.0457966 -0.34049 1
-0.0416145 -0.341503 1.00303
-0.0417585 -0.347051 1.00606
-0.0458168 -0.344979 1
-0.0458373 -0.349476 1
-0.0459971 -0.355052 1.00303
-0.0417957 -0.356104 1.00606
-0.0419028 -0.352633 1.00909
-0.0418147 -0.360642 1.00606
-0.0460182 -0.359576 1.00303
-0.0460397 -0.364107 1.00303
-0.041834 -0.365186 1.00606
-0.05022 -0.363029 1
-0.0502439 -0.367554 1
-0.0460615 -0.368645 1.00303
-0.0418535 -0.369738 1.00606
-0.0460836 -0.373191 1.00303
-0.0418734 -0.374297 1.00606
-0.0502682 -0.372087 1
-0.0502929 -0.376627 1
-0.046106 -0.377745 1.00303
-0.0418935 -0.378864 1.00606
-0.046268 -0.383461 1.00606
-0.0419139 -0.383439 1.00606
-0.0503179 -0.381175 1
-0.0503433 -0.38573 1
-0.0462911 -0.388043 1.00606
-0.0546751 -0.385757 1
-0.0547032 -0.390321 1
-0.0505216 -0.391476 1.00303
-0.0463145 -0.392634 1.00606
-0.0505478 -0.396062 1.00303
-0.0463383 -0.397233 1.00606
-0.0547317 -0.394893 1
-0.0547607 -0.399473 1
-0.0505743 -0.400655 1.00303
-0.046502 -0.403051 1.00909
-0.050754 -0.406481 1.00606
-0.0465265 -0.40768 1.00909
-0.05479 -0.404061 1
-0.0549859 -0.409896 1.00303
-0.0507814 -0.411106 1.00606
-0.0591649 -0.408689 1
-0.0591977 -0.413295 1
-0.0550161 -0.414516 1.00303
-0.0633539 -0.412077 0.99697
-0.0635823 -0.417944 1
-0.0594104 -0.419176 1.00303
-0.0677288 -0.416715 0.99697
-0.0677678 -0.421326 0.99697
-0.0636186 -0.422568 1
-0.0718916 -0.420085 0.993939
-0.072153 -0.425986 0.99697
-0.0680133 -0.42724 1
-0.0765 -0.42603 0.99697
-0.0765455 -0.43066 0.99697
-0.0724152 -0.431924 1
-0.0806506 -0.429398 0.993939
-0.0806994 -0.434024 0.993939
-0.0768244 -0.436622 1
-0.0850414 -0.434074 0.993939
-0.0853531 -0.440048 0.99697
-0.0809951 -0.439996 0.99697
-0.08944 -0.438764 0.993939
-0.0894959 -0.443411 0.993939
-0.0854064 -0.444708 0.99697
-0.0935605 -0.442117 0.990909
-0.09362 -0.446759 0.990909
-0.0895526 -0.448067 0.993939
-0.097962 -0.446821 0.990909
-0.0980252 -0.451474 0.990909
-0.0936802 -0.451412 0.990909
-0.102059 -0.450158 0.987879
-0.102439 -0.456204 0.990909
-0.0980893 -0.456138 0.990909
-0.106791 -0.456273 0.990909
-0.106862 -0.460949 0.990909
-0.102507 -0.460879 0.990909
-0.111218 -0.461022 0.990909
-0.115223 -0.459688 0.987879
-0.111293 -0.465709 0.990909
-0.106934 -0.465635 0.990909
-0.115655 -0.465786 0.990909
-0.119652 -0.464442 0.987879
-0.115735 -0.470486 0.990909
-0.11137 -0.470407 0.990909
-0.120101 -0.470567 0.990909
-0.119571 -0.459767 0.987879
-0.120185 -0.475278 0.990909
-0.115815 -0.475195 0.990909
-0.111788 -0.476569 0.993939
-0.116251 -0.481384 0.993939
-0.111866 -0.481303 0.993939
-0.12027 -0.48 0.990909
-0.120356 -0.484734 0.990909
-0.116334 -0.486131 0.993939
-0.124735 -0.484822 0.990909
-0.125207 -0.491065 0.993939
-0.120812 -0.490976 0.993939
-0.116418 -0.490889 0.993939
-0.1209 -0.495747 0.993939
-0.116503 -0.495659 0.993939
-0.125299 -0.495838 0.993939
-0.125775 -0.502148 0.99697
-0.121359 -0.502056 0.99697
-0.129798 -0.500718 0.993939
-0.130292 -0.507057 0.99697
-0.12587 -0.506959 0.99697
-0.134716 -0.507158 0.99697
-0.13482 -0.511984 0.99697
-0.130392 -0.511882 0.99697
-0.139674 -0.513646 1
-0.125966 -0.511783 0.99697
-0.121912 -0.513243 1
-0.12145 -0.506866 0.99697
-0.117389 -0.508316 1
-0.116945 -0.501967 0.99697
-0.112875 -0.503407 1
-0.113302 -0.509769 1.00303
-0.11245 -0.497086 0.99697
-0.108044 -0.497005 0.99697
-0.112368 -0.492303 0.99697
-0.107965 -0.492223 0.99697
-0.10388 -0.493642 1
-0.107888 -0.487452 0.99697
-0.103955 -0.498438 1
-0.103805 -0.488858 1
-0.111946 -0.486049 0.993939
-0.107484 -0.481226 0.993939
-0.103417 -0.482619 0.99697
-0.107408 -0.476493 0.993939
-0.103345 -0.477872 0.99697
-0.0989561 -0.477802 0.99697
-0.10296 -0.471698 0.993939
-0.099326 -0.484014 1
-0.0985874 -0.471629 0.993939
-0.107007 -0.470332 0.990909
-0.10289 -0.466988 0.993939
-0.0985205 -0.46692 0.993939
-0.0984544 -0.462221 0.993939
-0.0940901 -0.462157 0.993939
-0.0944401 -0.468278 0.99697
-0.094028 -0.45747 0.993939
-0.0899417 -0.458804 0.99697
-0.0900009 -0.463505 0.99697
-0.0896101 -0.452733 0.993939
-0.0855149 -0.454057 0.99697
-0.0858304 -0.460141 1
-0.0854603 -0.449377 0.99697
-0.0813429 -0.45069 1
-0.0813947 -0.455383 1
-0.0810454 -0.444655 0.99697
-0.0769189 -0.445958 1
-0.0772004 -0.452006 1.00303
-0.0768714 -0.441285 1
-0.0727224 -0.442576 1.00303
-0.0729871 -0.448614 1.00606
-0.0724587 -0.436577 1
-0.0685068 -0.43918 1.00606
-0.0685483 -0.44387 1.00606
-0.0682597 -0.433191 1.00303
-0.0640789 -0.434461 1.00606
-0.0643101 -0.440463 1.00909
-0.0640413 -0.42979 1.00606
-0.0598378 -0.431049 1.00909
-0.0598727 -0.435733 1.00909
-0.0596237 -0.425094 1.00606
-0.0554107 -0.426341 1.00909
-0.0556089 -0.43231 1.01212
-0.0552131 -0.42041 1.00606
-0.0509903 -0.421647 1.00909
-0.0510189 -0.426311 1.00909
-0.0508091 -0.415739 1.00606
-0.0465765 -0.416964 1.00909
-0.0465513 -0.412318 1.00909
-0.0422734 -0.408881 1.01212
-0.0422514 -0.404238 1.01212
-0.0421033 -0.398407 1.00909
-0.0420819 -0.393794 1.00909
-0.0420609 -0.38919 1.00909
-0.046742 -0.422886 1.01212
-0.046908 -0.428844 1.01515
-0.0470745 -0.43484 1.01818
-0.0512012 -0.432279 1.01212
-0.0515374 -0.439593 1.01818
-0.0556411 -0.437008 1.01212
-0.0558405 -0.443037 1.01515
-0.0517209 -0.44565 1.02121
-0.060088 -0.441749 1.01212
-0.060124 -0.446466 1.01212
-0.0560405 -0.449104 1.01818
-0.0643488 -0.445167 1.00909
-0.0645815 -0.451231 1.01212
-0.0601605 -0.451193 1.01212
-0.0685903 -0.44857 1.00606
-0.0688397 -0.454645 1.00909
-0.0646214 -0.455968 1.01212
-0.0730327 -0.453324 1.00606
-0.0730789 -0.458044 1.00606
-0.0688831 -0.459379 1.00909
-0.0772494 -0.456712 1.00303
-0.0775326 -0.462823 1.00606
-0.0733459 -0.464168 1.00909
-0.0814473 -0.460086 1
-0.0817475 -0.466209 1.00303
-0.0775832 -0.467565 1.00606
-0.0858868 -0.464855 1
-0.0862043 -0.471003 1.00303
-0.090061 -0.468216 0.99697
-0.0903957 -0.474376 1
-0.0862624 -0.475753 1.00303
-0.0945041 -0.473001 0.99697
-0.0948564 -0.479187 1
-0.0907317 -0.480575 1.00303
-0.086582 -0.481966 1.00606
-0.0910689 -0.486814 1.00606
-0.09521 -0.485413 1.00303
-0.095277 -0.490198 1.00303
-0.0911328 -0.491613 1.00606
-0.0993962 -0.488786 1
-0.0997687 -0.495065 1.00303
-0.095633 -0.49649 1.00606
-0.0914724 -0.497918 1.00909
-0.0959904 -0.502823 1.00909
-0.100143 -0.501384 1.00606
-0.100518 -0.507745 1.00909
-0.104662 -0.506296 1.00606
-0.108781 -0.50485 1.00303
-0.105055 -0.512685 1.00909
-0.100895 -0.514147 1.01212
-0.109191 -0.511225 1.00606
-0.0967092 -0.515612 1.01515
-0.0963491 -0.509197 1.01212
-0.0924303 -0.512177 1.01818
-0.0922233 -0.515542 1.01515
-0.092088 -0.505775 1.01515
-0.0881339 -0.508729 1.02121
-0.088198 -0.513635 1.02121
-0.0872866 -0.49935 1.01212
-0.0872248 -0.494511 1.01212
-0.0869028 -0.488219 1.00909
-0.0829592 -0.491092 1.01515
-0.0789638 -0.493967 1.02121
-0.0826547 -0.484811 1.01212
-0.0786755 -0.487659 1.01818
-0.0783883 -0.481391 1.01515
-0.0743735 -0.484213 1.02121
-0.0823512 -0.478571 1.00909
-0.082296 -0.473793 1.00909
-0.078102 -0.475162 1.01212
-0.0741034 -0.477957 1.01818
-0.073614 -0.470332 1.01212
-0.0695929 -0.473101 1.01818
-0.069134 -0.465516 1.01212
-0.0650904 -0.468261 1.01818
-0.0646619 -0.460716 1.01212
-0.0605957 -0.463435 1.01818
-0.0603777 -0.457295 1.01515
-0.0561086 -0.458624 1.01818
-0.0563104 -0.464778 1.02121
-0.0560743 -0.453859 1.01818
-0.0517515 -0.450409 1.02121
-0.0474368 -0.451716 1.02424
-0.0520898 -0.457879 1.02727
-0.0472688 -0.445621 1.02121
-0.0472415 -0.440873 1.02121
-0.0430227 -0.438697 1.02727
-0.0428719 -0.432659 1.02424
-0.043174 -0.444772 1.0303
-0.0390279 -0.448673 1.03939
-0.0433257 -0.450884 1.03333
-0.0390499 -0.453505 1.03939
-0.0433508 -0.455699 1.03333
-0.0435034 -0.461873 1.03636
-0.0477458 -0.459199 1.0303
-0.047915 -0.465385 1.03333
-0.0521213 -0.462685 1.02727
-0.0523072 -0.468881 1.0303
-0.0479442 -0.47023 1.03333
-0.0435555 -0.471581 1.03636
-0.0481145 -0.476478 1.03636
-0.0435821 -0.47645 1.03636
-0.0523398 -0.473723 1.0303
-0.0566801 -0.472364 1.02727
-0.0525268 -0.479983 1.03333
-0.0481446 -0.481359 1.03636
-0.0568834 -0.47861 1.0303
-0.0612144 -0.47724 1.02727
-0.0617961 -0.486356 1.03636
-0.0609948 -0.471008 1.02424
-0.0653261 -0.474466 1.02121
-0.0702602 -0.482176 1.02727
-0.0661445 -0.484976 1.03333
-0.0705142 -0.488475 1.0303
-0.0663823 -0.491303 1.03636
-0.0620175 -0.492697 1.03939
-0.0666209 -0.497669 1.03939
-0.0620587 -0.497626 1.03939
-0.0707691 -0.494814 1.03333
-0.0708172 -0.499727 1.03333
-0.066666 -0.502611 1.03939
-0.0749165 -0.496846 1.02727
-0.0746445 -0.490509 1.02424
-0.0754107 -0.504703 1.03333
-0.0710739 -0.506132 1.03636
-0.0804255 -0.507717 1.03939
-0.084504 -0.504814 1.03333
-0.0804822 -0.512684 1.03939
-0.0754635 -0.50964 1.03333
-0.0848117 -0.511248 1.03636
-0.0798351 -0.513136 1.0303
-0.0755171 -0.514589 1.03333
-0.0838797 -0.510176 1.02424
-0.0796578 -0.51656 1.02727
-0.0755715 -0.519551 1.03333
-0.0712248 -0.521022 1.03636
-0.0754048 -0.522987 1.0303
-0.0708597 -0.522933 1.0303
-0.0797161 -0.521506 1.02727
-0.0711738 -0.516046 1.03636
-0.066805 -0.517506 1.03939
-0.0711235 -0.511083 1.03636
-0.0670476 -0.524019 1.04242
-0.0667581 -0.512529 1.03939
-0.0623671 -0.513978 1.04242
-0.0667117 -0.507564 1.03939
-0.0624108 -0.518969 1.04242
-0.062324 -0.508999 1.04242
-0.057743 -0.508958 1.04242
-0.0624626 -0.505497 1.04545
-0.0577826 -0.513936 1.04242
-0.0577039 -0.503992 1.04242
-0.0529727 -0.502489 1.03939
-0.0576653 -0.499037 1.04242
-0.0531629 -0.50892 1.04242
-0.0529375 -0.49755 1.03939
-0.0485194 -0.498967 1.04242
-0.0530571 -0.494058 1.04242
-0.0485514 -0.503921 1.04242
-0.0484879 -0.494025 1.04242
-0.0576272 -0.494094 1.04242
-0.0574223 -0.48774 1.03939
-0.0528686 -0.487704 1.03939
-0.0483159 -0.487672 1.03939
-0.0438641 -0.484145 1.04242
-0.0442321 -0.50682 1.04848
-0.0488662 -0.511845 1.04848
-0.0442613 -0.511814 1.04848
-0.0398863 -0.514744 1.05455
-0.0442909 -0.516819 1.04848
-0.0399127 -0.519779 1.05455
-0.0487579 -0.515357 1.04545
-0.0533538 -0.515392 1.04545
-0.0487913 -0.520361 1.04545
-0.0441928 -0.520329 1.04545
-0.0532359 -0.518888 1.04242
-0.0578228 -0.518927 1.04242
-0.0532732 -0.52389 1.04242
-0.0486837 -0.523855 1.04242
-0.0578636 -0.52393 1.04242
-0.062455 -0.523972 1.04242
-0.0577366 -0.527407 1.03939
-0.053001 -0.52583 1.03636
-0.0621365 -0.525913 1.03636
-0.0665109 -0.524421 1.03333
-0.0576099 -0.530868 1.03636
-0.053039 -0.530828 1.03636
-0.0484691 -0.530792 1.03636
-0.0485763 -0.527331 1.03939
-0.0439974 -0.527299 1.03939
-0.0440284 -0.532311 1.03939
-0.044095 -0.523822 1.04242
-0.0395071 -0.523794 1.04242
-0.0394193 -0.52727 1.03939
-0.0395951 -0.520301 1.04545
-0.034998 -0.520276 1.04545
-0.0350213 -0.525291 1.04545
-0.0352791 -0.519754 1.05455
-0.0304896 -0.521762 1.04848
-0.0304214 -0.525269 1.04545
-0.0258218 -0.525251 1.04545
-0.0257636 -0.528741 1.04242
-0.0211743 -0.528726 1.04242
-0.0303533 -0.528759 1.04242
-0.0349435 -0.528781 1.04242
-0.0302854 -0.532233 1.03939
-0.0257055 -0.532214 1.03939
-0.0348658 -0.532255 1.03939
-0.0394468 -0.532281 1.03939
-0.021126 -0.532199 1.03939
-0.0165468 -0.532188 1.03939
-0.0165853 -0.528715 1.04242
-0.0119966 -0.528707 1.04242
-0.0120027 -0.533731 1.04242
-0.00741057 -0.533727 1.04242
-0.00742953 -0.530239 1.04545
-0.00282766 -0.530239 1.04545
-0.00744853 -0.526735 1.04848
-0.00282667 -0.535278 1.04545
-0.00283685 -0.526734 1.04848
0.00177486 -0.526737 1.04848
-0.00284605 -0.523214 1.05152
0.00177424 -0.530241 1.04545
0.00177549 -0.523217 1.05152
-0.00746756 -0.523215 1.05152
0.00641559 -0.524731 1.05455
0.00178125 -0.521173 1.05758
0.00640514 -0.528266 1.05152
0.00640766 -0.519685 1.05455
-0.00287167 -0.522663 1.06061
-0.00288088 -0.51908 1.06364
-0.00755117 -0.524157 1.06364
0.00177682 -0.516125 1.05758
-0.00757024 -0.52056 1.06667
0.00636305 -0.511695 1.04848
0.0109964 -0.513183 1.05152
0.0110394 -0.519695 1.05455
0.0157164 -0.521201 1.05758
0.0110508 -0.52474 1.05455
0.0157017 -0.516154 1.05758
0.0110305 -0.528276 1.05152
0.0110103 -0.531794 1.04848
0.00639475 -0.531785 1.04848
0.0064029 -0.536838 1.04848
0.0110539 -0.5384 1.05152
0.00178396 -0.536832 1.04848
0.0157771 -0.541517 1.05758
-0.0354588 -0.517678 1.06061
-0.0399748 -0.511187 1.05758
-0.0444588 -0.504738 1.05455
-0.0308222 -0.522719 1.06061
-0.0836922 -0.513572 1.02121
-0.0835051 -0.516951 1.01818
-0.0880011 -0.517014 1.01818
-0.0428484 -0.427926 1.02424
-0.0426985 -0.421948 1.02121
-0.0424224 -0.41477 1.01515
-0.0377685 -0.381128 1.01212
-0.0333918 -0.381111 1.01212
-0.0376376 -0.375406 1.00909
-0.0376323 -0.344581 1.01212
-0.0335583 -0.343084 1.02121
-0.0335446 -0.338513 1.02121
-0.0239968 -0.233762 0.99697
-0.0196863 -0.233045 0.993939
-0.0239902 -0.229424 0.99697
-0.0196812 -0.228721 0.993939
-0.0196162 -0.223717 0.990909
-0.0196113 -0.219415 0.990909
-0.0196664 -0.215775 0.993939
-0.0319518 -0.204657 0.981818
-0.0319435 -0.20041 0.981818
-0.0113011 -0.209053 1.00303
-0.00271468 -0.124522 0.981818
0.001425 -0.122985 0.969697
-0.00265577 -0.12593 0.960606
0.00140382 -0.125136 0.954545
-0.00265549 -0.130032 0.960606
0.0014094 -0.129622 0.957576
0.00544871 -0.129213 0.954545
0.00140609 -0.13329 0.954545
-0.0026552 -0.134136 0.960606
0.00544675 -0.125138 0.954545
-0.0026549 -0.138242 0.960606
0.00140728 -0.137371 0.954545
0.0054528 -0.137372 0.954545
0.00142191 -0.142802 0.963636
-0.163405 -0.470119 0.987879
-0.0149168 -0.0323679 0.966667
-0.0267247 -0.0117721 0.951515
-0.106225 -0.0396518 0.942424
-0.106577 -0.0437838 0.945455
-0.102566 -0.0437734 0.945455
-0.102576 -0.0477786 0.945455
-0.0988822 -0.0479213 0.948485
-0.106588 -0.0477896 0.945455
-0.106599 -0.0517966 0.945455
-0.0312765 0.163655 0.966667
-0.0352597 0.167242 0.963636
-0.0392192 0.170807 0.960606
-0.0273581 0.164678 0.972727
-0.023244 0.164675 0.972727
-0.0316728 0.169867 0.978788
-0.0277878 0.171441 0.987879
-0.0355973 0.172957 0.972727
-0.0395963 0.17655 0.969697
-0.0359406 0.18293 0.981818
-0.0357134 0.177647 0.975758
-0.12515 0.224541 0.960606
-0.125515 0.221107 0.963636
