# .PCD v0.7 - Point Cloud Data file format
VERSION 0.7
FIELDS x y z
SIZE 4 4 4
TYPE F F F
COUNT 1 1 1
WIDTH 1879
HEIGHT 1
VIEWPOINT 0 0 0 1 0 0 0
POINTS 1879
DATA ascii
0.0320087 -0.235039 1.02121
0.0231628 -0.233623 1.01515
0.0187792 -0.232917 1.01212
0.0232412 -0.23875 1.01818
0.0275833 -0.23876 1.01818
0.018787 -0.23732 1.01212
0.0144283 -0.236603 1.00909
0.0188512 -0.242452 1.01515
0.0232506 -0.243184 1.01818
0.014478 -0.241721 1.01212
0.010131 -0.240991 1.00909
0.0144846 -0.246133 1.01212
0.0188593 -0.246877 1.01515
0.0101665 -0.246127 1.01212
0.00583118 -0.245386 1.00909
0.0101717 -0.250544 1.01212
0.0144913 -0.25055 1.01212
0.00583481 -0.249789 1.00909
0.00581011 -0.240263 1.00606
0.00151979 -0.24026 1.00606
0.00152187 -0.244646 1.00606
-0.00276983 -0.244645 1.00606
0.00152857 -0.249786 1.00909
-0.00276922 -0.249035 1.00606
-0.00276208 -0.239535 1.00303
-0.0027686 -0.25343 1.00606
0.00153073 -0.254195 1.00909
-0.00704203 -0.252667 1.00303
-0.00704295 -0.257053 1.00303
-0.00276798 -0.25783 1.00606
-0.0113263 -0.257055 1.00303
-0.0113288 -0.261446 1.00303
-0.00704389 -0.261445 1.00303
-0.0156138 -0.26145 1.00303
-0.015618 -0.265846 1.00303
-0.0113314 -0.265843 1.00303
-0.0199048 -0.265851 1.00303
-0.0199107 -0.270253 1.00303
-0.0156222 -0.270247 1.00303
-0.0241262 -0.269443 1
-0.024207 -0.274666 1.00303
-0.0199166 -0.274659 1.00303
-0.0284115 -0.273845 1
-0.028507 -0.279087 1.00303
-0.0242147 -0.279078 1.00303
-0.0199227 -0.279071 1.00303
-0.0242226 -0.283495 1.00303
-0.0199288 -0.283488 1.00303
-0.0285166 -0.283504 1.00303
-0.0285263 -0.287927 1.00303
-0.0242306 -0.287918 1.00303
-0.0199351 -0.287911 1.00303
-0.0242387 -0.292346 1.00303
-0.0199414 -0.292339 1.00303
-0.0285362 -0.292355 1.00303
-0.0285463 -0.296789 1.00303
-0.0242469 -0.29678 1.00303
-0.0199479 -0.296772 1.00303
-0.0242553 -0.301219 1.00303
-0.0200147 -0.302122 1.00606
-0.0285565 -0.301229 1.00303
-0.0285668 -0.305674 1.00303
-0.0242638 -0.305665 1.00303
-0.0200214 -0.30658 1.00606
-0.0242724 -0.310116 1.00303
-0.0200282 -0.311045 1.00606
-0.0285773 -0.310125 1.00303
-0.028588 -0.314583 1.00303
-0.0242812 -0.314573 1.00303
-0.020035 -0.315515 1.00606
-0.0243634 -0.32 1.00606
-0.020042 -0.319992 1.00606
-0.0285988 -0.319046 1.00303
-0.0286098 -0.323516 1.00303
-0.0243725 -0.324483 1.00606
-0.0329208 -0.323528 1.00303
-0.0330335 -0.328995 1.00606
-0.0287074 -0.328982 1.00606
-0.0243817 -0.328972 1.00606
-0.0287187 -0.333478 1.00606
-0.024391 -0.333468 1.00606
-0.0330469 -0.333491 1.00606
-0.0330604 -0.337993 1.00606
-0.0287303 -0.337981 1.00606
-0.024474 -0.338988 1.00909
-0.0287419 -0.34249 1.00606
-0.0244836 -0.34351 1.00909
-0.0330742 -0.342502 1.00606
-0.0331878 -0.348064 1.00909
-0.0288404 -0.348051 1.00909
-0.0244933 -0.34804 1.00909
-0.0288525 -0.352587 1.00909
-0.0245033 -0.352576 1.00909
-0.0332021 -0.3526 1.00909
-0.0332165 -0.357143 1.00909
-0.0288647 -0.35713 1.00909
-0.0245133 -0.357119 1.00909
-0.0288771 -0.36168 1.00909
-0.0245235 -0.361669 1.00909
-0.0332311 -0.361694 1.00909
-0.033246 -0.366252 1.00909
-0.0288897 -0.366238 1.00909
-0.0245339 -0.366226 1.00909
-0.0289025 -0.370803 1.00909
-0.0245444 -0.370791 1.00909
-0.033261 -0.370817 1.00909
-0.0332763 -0.375389 1.00909
-0.0289155 -0.375375 1.00909
-0.0246288 -0.376491 1.01212
-0.0289286 -0.379955 1.00909
-0.0246396 -0.381084 1.01212
-0.0332918 -0.37997 1.00909
-0.0333075 -0.384558 1.00909
-0.0289419 -0.384543 1.00909
-0.0246506 -0.385685 1.01212
-0.0290424 -0.390307 1.01212
-0.0246618 -0.390295 1.01212
-0.0333234 -0.389153 1.00909
-0.0334397 -0.394939 1.01212
-0.0290562 -0.394924 1.01212
-0.0246731 -0.394912 1.01212
-0.0290701 -0.39955 1.01212
-0.0247585 -0.400733 1.01515
-0.0334561 -0.399565 1.01212
-0.0334728 -0.404199 1.01212
-0.0290843 -0.404184 1.01212
-0.0247701 -0.405381 1.01515
-0.0290986 -0.408826 1.01212
-0.024782 -0.410037 1.01515
-0.0334897 -0.408841 1.01212
-0.0336072 -0.41473 1.01515
-0.0292004 -0.414714 1.01515
-0.024794 -0.414701 1.01515
-0.0292152 -0.419388 1.01515
-0.0248802 -0.420626 1.01818
-0.0336246 -0.419404 1.01515
-0.0336423 -0.424086 1.01515
-0.0292302 -0.42407 1.01515
-0.0248926 -0.425322 1.01818
-0.0292454 -0.428761 1.01515
-0.0249052 -0.430027 1.01818
-0.0336602 -0.428778 1.01515
-0.0337789 -0.434772 1.01818
-0.0293482 -0.434755 1.01818
-0.0249179 -0.434741 1.01818
-0.0293639 -0.439479 1.01818
-0.0249308 -0.439465 1.01818
-0.0337974 -0.439496 1.01818
-0.0338161 -0.44423 1.01818
-0.0293798 -0.444212 1.01818
-0.0249439 -0.444198 1.01818
-0.029396 -0.448955 1.01818
-0.0249572 -0.44894 1.01818
-0.0338351 -0.448973 1.01818
-0.0338544 -0.453726 1.01818
-0.0294123 -0.453708 1.01818
-0.038297 -0.453746 1.01818
-0.0383195 -0.45851 1.01818
-0.033874 -0.458488 1.01818
-0.0427656 -0.458534 1.01818
-0.0427914 -0.463307 1.01818
-0.0383423 -0.463283 1.01818
-0.0472412 -0.463335 1.01818
-0.0472704 -0.468119 1.01818
-0.0428175 -0.468091 1.01818
-0.051724 -0.46815 1.01818
-0.0517566 -0.472945 1.01818
-0.0472999 -0.472914 1.01818
-0.0429715 -0.474293 1.02121
-0.0474707 -0.479141 1.02121
-0.0429985 -0.479112 1.02121
-0.0519438 -0.479173 1.02121
-0.0519775 -0.484004 1.02121
-0.0476422 -0.485408 1.02424
-0.0564546 -0.484039 1.02121
-0.0568271 -0.491783 1.02727
-0.0521659 -0.490297 1.02424
-0.0611541 -0.490372 1.02424
-0.0656497 -0.490415 1.02424
-0.0613763 -0.496706 1.02727
-0.0568651 -0.496666 1.02727
-0.0658885 -0.496749 1.02727
-0.0704019 -0.496796 1.02727
-0.0659337 -0.501645 1.02727
-0.0614182 -0.501601 1.02727
-0.0708661 -0.504652 1.03333
-0.0701465 -0.49046 1.02424
-0.0748654 -0.491961 1.02727
-0.0751375 -0.498311 1.0303
-0.0799011 -0.49983 1.03333
-0.0754107 -0.504703 1.03333
-0.0799566 -0.504757 1.03333
-0.0798463 -0.494916 1.03333
-0.0795582 -0.488576 1.0303
-0.0851294 -0.499326 1.04242
-0.0844451 -0.499887 1.03333
-0.0895125 -0.50288 1.03939
-0.0842561 -0.503334 1.0303
-0.0890528 -0.504875 1.03333
-0.0933288 -0.503459 1.0303
-0.0888546 -0.50832 1.0303
-0.0843157 -0.508258 1.0303
-0.0943606 -0.50441 1.04242
-0.0986617 -0.503011 1.03939
-0.0988806 -0.499516 1.04242
-0.0951175 -0.503805 1.05152
-0.090233 -0.50229 1.04848
-0.0914746 -0.5045 1.06364
-0.091413 -0.499463 1.06364
-0.0958742 -0.503126 1.06061
-0.0960833 -0.499525 1.06364
-0.086308 -0.501565 1.05758
-0.0855087 -0.492289 1.04848
-0.0890099 -0.481759 1.03636
-0.0930101 -0.479002 1.0303
-0.0978676 -0.503527 1.0303
-0.102408 -0.503598 1.0303
-0.106636 -0.502191 1.02727
-0.107189 -0.500222 1.03333
-0.111744 -0.500299 1.03333
-0.111665 -0.495378 1.03333
-0.111915 -0.491907 1.03636
-0.116218 -0.495458 1.03333
-0.1163 -0.50038 1.03333
-0.120859 -0.500463 1.03333
-0.110839 -0.500787 1.02424
-0.115018 -0.499386 1.02121
-0.110263 -0.502696 1.01818
-0.106083 -0.504114 1.02121
-0.114759 -0.502777 1.01818
-0.119612 -0.504359 1.02121
-0.115185 -0.509173 1.02121
-0.110343 -0.50758 1.01818
-0.1197 -0.50926 1.02121
-0.119526 -0.49947 1.02121
-0.124495 -0.505944 1.02424
-0.129788 -0.509031 1.0303
-0.12348 -0.506327 1.01515
-0.128737 -0.509443 1.02121
-0.119078 -0.511121 1.01515
-0.114586 -0.511034 1.01515
-0.118811 -0.514477 1.01212
-0.114329 -0.514389 1.01212
-0.109849 -0.514305 1.01212
-0.110096 -0.510951 1.01515
-0.105292 -0.509346 1.01212
-0.105055 -0.512685 1.00909
-0.10553 -0.50599 1.01515
-0.101048 -0.505915 1.01515
-0.101122 -0.510794 1.01515
-0.101879 -0.505535 1.02424
-0.0973613 -0.505463 1.02424
-0.0968552 -0.507353 1.01818
-0.0923629 -0.507284 1.01818
-0.096926 -0.512246 1.01818
-0.0924303 -0.512177 1.01818
-0.0928458 -0.505395 1.02424
-0.0881339 -0.508729 1.02121
-0.0838797 -0.510176 1.02424
-0.088198 -0.513635 1.02121
-0.0836922 -0.513572 1.02121
-0.0794228 -0.515036 1.02424
-0.0835051 -0.516951 1.01818
-0.0787755 -0.515352 1.01515
-0.0880011 -0.517014 1.01818
-0.0796003 -0.511627 1.02727
-0.0750742 -0.511571 1.02727
-0.0797783 -0.5082 1.0303
-0.0749066 -0.51498 1.02424
-0.0754635 -0.50964 1.03333
-0.0709155 -0.509588 1.03333
-0.0705495 -0.511519 1.02727
-0.0658312 -0.509962 1.02424
-0.0701835 -0.513404 1.02121
-0.0656832 -0.513356 1.02121
-0.0659795 -0.506552 1.02727
-0.0614606 -0.506507 1.02727
-0.0613222 -0.509917 1.02424
-0.0568143 -0.509876 1.02424
-0.0611841 -0.51331 1.02121
-0.0566861 -0.513268 1.02121
-0.0569428 -0.506466 1.02727
-0.0522713 -0.504935 1.02424
-0.0569037 -0.50156 1.02727
-0.0523074 -0.509838 1.02424
-0.0523902 -0.501523 1.02727
-0.0478776 -0.501489 1.02727
-0.0522005 -0.495165 1.02424
-0.04791 -0.506394 1.02727
-0.0478457 -0.496596 1.02727
-0.0432094 -0.495101 1.02424
-0.0476731 -0.490264 1.02424
-0.0433658 -0.501459 1.02727
-0.0431812 -0.490234 1.02424
-0.0388045 -0.491658 1.02727
-0.0431534 -0.485379 1.02424
-0.0388294 -0.496539 1.02727
-0.0386654 -0.485353 1.02424
-0.0341781 -0.48533 1.02424
-0.0386412 -0.480508 1.02424
-0.0343006 -0.491635 1.02727
-0.034157 -0.480486 1.02424
-0.0296733 -0.480467 1.02424
-0.0340352 -0.474246 1.02121
-0.0296912 -0.48531 1.02424
-0.0295679 -0.474227 1.02121
-0.0385031 -0.474268 1.02121
-0.0383654 -0.468066 1.01818
-0.0339138 -0.468045 1.01818
-0.0295505 -0.469419 1.02121
-0.0338938 -0.463261 1.01818
-0.0294458 -0.463243 1.01818
-0.0250726 -0.464606 1.02121
-0.0294289 -0.45847 1.01818
-0.0250868 -0.469403 1.02121
-0.0250587 -0.459819 1.02121
-0.0206013 -0.459807 1.02121
-0.0249707 -0.453693 1.01818
-0.0206123 -0.464594 1.02121
-0.0205905 -0.455031 1.02121
-0.0161364 -0.455021 1.02121
-0.0205189 -0.448928 1.01818
-0.0161442 -0.459798 1.02121
-0.0161286 -0.450255 1.02121
-0.0117122 -0.451585 1.02424
-0.016121 -0.445499 1.02121
-0.011717 -0.456365 1.02424
-0.0116728 -0.445493 1.02121
-0.0205084 -0.444186 1.01818
-0.0204981 -0.439453 1.01818
-0.0161135 -0.440752 1.02121
-0.0116681 -0.440746 1.02121
-0.0161061 -0.436015 1.02121
-0.0116635 -0.436009 1.02121
-0.020488 -0.43473 1.01818
-0.020478 -0.430016 1.01818
-0.0160988 -0.431287 1.02121
-0.011659 -0.431281 1.02121
-0.0160439 -0.425302 1.01818
-0.0116545 -0.426562 1.02121
-0.0204681 -0.425311 1.01818
-0.0204584 -0.420615 1.01818
-0.0160369 -0.420607 1.01818
-0.0116155 -0.420601 1.01818
-0.0160299 -0.41592 1.01818
-0.0116112 -0.415914 1.01818
-0.0204488 -0.415928 1.01818
-0.0203785 -0.410026 1.01515
-0.016023 -0.411242 1.01818
-0.0116069 -0.411236 1.01818
-0.0159686 -0.405362 1.01515
-0.0115682 -0.405357 1.01515
-0.0203692 -0.40537 1.01515
-0.0203601 -0.400723 1.01515
-0.015962 -0.400715 1.01515
-0.0115641 -0.40071 1.01515
-0.0159554 -0.396076 1.01515
-0.01156 -0.396071 1.01515
-0.0202903 -0.394902 1.01212
-0.0202814 -0.390285 1.01212
-0.0159014 -0.390277 1.01212
-0.0115215 -0.390272 1.01212
-0.0158951 -0.385668 1.01212
-0.0115176 -0.385663 1.01212
-0.0202727 -0.385676 1.01212
-0.0202641 -0.381074 1.01212
-0.0158888 -0.381067 1.01212
-0.0115137 -0.381062 1.01212
-0.0158827 -0.376474 1.01212
-0.0115099 -0.376469 1.01212
-0.0202556 -0.376481 1.01212
-0.0201866 -0.370782 1.00909
-0.0158766 -0.371888 1.01212
-0.0115062 -0.371883 1.01212
-0.0158706 -0.36731 1.01212
-0.0115025 -0.367305 1.01212
-0.0201784 -0.366217 1.00909
-0.0201703 -0.36166 1.00909
-0.0158648 -0.362739 1.01212
-0.0114989 -0.362734 1.01212
-0.015859 -0.358175 1.01212
-0.0114953 -0.358171 1.01212
-0.0201623 -0.35711 1.00909
-0.0201544 -0.352567 1.00909
-0.0158058 -0.35256 1.00909
-0.0114573 -0.352556 1.00909
-0.0158002 -0.348024 1.00909
-0.0114539 -0.34802 1.00909
-0.0201466 -0.348031 1.00909
-0.020139 -0.343502 1.00909
-0.0157946 -0.343495 1.00909
-0.0114505 -0.343491 1.00909
-0.0157892 -0.338973 1.00909
-0.0114471 -0.338969 1.00909
-0.020071 -0.337962 1.00606
-0.0200636 -0.333459 1.00606
-0.0157838 -0.334458 1.00909
-0.0114438 -0.334453 1.00909
-0.0157311 -0.328958 1.00606
-0.0114405 -0.329944 1.00909
-0.0200563 -0.328964 1.00606
-0.0200491 -0.324475 1.00606
-0.015726 -0.324469 1.00606
-0.0114373 -0.325442 1.00909
-0.0157208 -0.319986 1.00606
-0.0114342 -0.320946 1.00909
-0.00712159 -0.321907 1.01212
-0.0113967 -0.315505 1.00606
-0.00712278 -0.326417 1.01212
-0.0070991 -0.316454 1.00909
-0.0157158 -0.315509 1.00606
-0.0157108 -0.311039 1.00606
-0.0113937 -0.311035 1.00606
-0.00709795 -0.31197 1.00909
-0.0113907 -0.306571 1.00606
-0.00709681 -0.307492 1.00909
-0.0157059 -0.306575 1.00606
-0.0157011 -0.302116 1.00606
-0.0113877 -0.302112 1.00606
-0.0070957 -0.30302 1.00909
-0.0113848 -0.29766 1.00606
-0.0070733 -0.297658 1.00606
-0.0156964 -0.297663 1.00606
-0.0156917 -0.293216 1.00606
-0.0113819 -0.293213 1.00606
-0.00707223 -0.293211 1.00606
-0.0113791 -0.288771 1.00606
-0.00707117 -0.288769 1.00606
-0.0156399 -0.287905 1.00303
-0.0156354 -0.283483 1.00303
-0.0113763 -0.284336 1.00606
-0.00707013 -0.284334 1.00606
-0.0113736 -0.279905 1.00606
-0.00706911 -0.279903 1.00606
-0.0156309 -0.279066 1.00303
-0.0156265 -0.274654 1.00303
-0.0113366 -0.27465 1.00303
-0.0070681 -0.275478 1.00606
-0.011334 -0.270244 1.00303
-0.00706711 -0.271059 1.00606
-0.00276602 -0.271058 1.00606
-0.00706613 -0.266644 1.00606
-0.00276535 -0.275478 1.00606
-0.00276669 -0.266644 1.00606
0.00153742 -0.267448 1.00909
-0.00276734 -0.262234 1.00606
0.00153972 -0.271876 1.00909
0.00153515 -0.263026 1.00909
0.00584608 -0.263029 1.00909
0.00153292 -0.258608 1.00909
0.00584996 -0.267452 1.00909
0.00584226 -0.258611 1.00909
0.0101823 -0.259392 1.01212
0.00583851 -0.254198 1.00909
0.0101877 -0.263823 1.01212
0.0101769 -0.254965 1.01212
0.0144981 -0.254972 1.01212
0.014505 -0.259398 1.01212
0.0188844 -0.260182 1.01515
0.014512 -0.263829 1.01212
0.0189494 -0.265417 1.01818
0.0188759 -0.255743 1.01515
0.0232799 -0.256515 1.01818
0.0188675 -0.251308 1.01515
0.02329 -0.260969 1.01818
0.02327 -0.252067 1.01818
0.0276988 -0.252828 1.02121
0.0232602 -0.247623 1.01818
0.0277103 -0.257289 1.02121
0.0276053 -0.247634 1.01818
0.0321411 -0.24912 1.02424
0.0275942 -0.243194 1.01818
0.032154 -0.25359 1.02424
0.0320334 -0.24393 1.02121
0.036499 -0.244667 1.02424
0.0320209 -0.239482 1.02121
0.0365132 -0.249133 1.02424
0.036485 -0.240206 1.02424
0.0409757 -0.240931 1.02727
0.0364713 -0.235749 1.02424
0.0409911 -0.245406 1.02727
0.0409604 -0.236461 1.02727
0.0453424 -0.236477 1.02727
0.0409455 -0.231995 1.02727
0.0453591 -0.240947 1.02727
0.045326 -0.232011 1.02727
0.0498539 -0.232712 1.0303
0.0498718 -0.237192 1.0303
0.04989 -0.241676 1.0303
0.0544086 -0.233415 1.03333
0.0500553 -0.246888 1.03333
0.0455099 -0.246146 1.0303
0.0455272 -0.250639 1.0303
0.0500743 -0.251395 1.03333
0.0410069 -0.249885 1.02727
0.0410229 -0.25437 1.02727
0.0455449 -0.255137 1.0303
0.0365276 -0.253604 1.02424
0.0365423 -0.258079 1.02424
0.0410392 -0.258859 1.02727
0.0321671 -0.258065 1.02424
0.0321805 -0.262546 1.02424
0.0366654 -0.263337 1.02727
0.027722 -0.261756 1.02121
0.027734 -0.266228 1.02121
0.032194 -0.267031 1.02424
0.0233696 -0.266217 1.02121
0.0233801 -0.270693 1.02121
0.0277461 -0.270705 1.02121
0.0189582 -0.26988 1.01818
0.0145191 -0.268266 1.01212
0.0189672 -0.274348 1.01818
0.0233908 -0.275175 1.02121
0.0146134 -0.27434 1.01818
0.0102293 -0.273517 1.01515
0.0146208 -0.278814 1.01818
0.0189762 -0.278822 1.01818
0.0102351 -0.277977 1.01515
0.0101932 -0.268259 1.01212
0.00585391 -0.27188 1.00909
0.00587551 -0.277142 1.01212
0.00154206 -0.27631 1.00909
0.00154444 -0.280748 1.00909
0.00587959 -0.281594 1.01212
-0.002773 -0.280746 1.00909
-0.0027723 -0.28519 1.00909
0.0015515 -0.286048 1.01212
0.00588374 -0.286051 1.01212
0.00155396 -0.29051 1.01212
0.00588795 -0.290514 1.01212
-0.0027716 -0.289639 1.00909
-0.00277088 -0.294094 1.00909
0.00155646 -0.294979 1.01212
0.00589223 -0.294982 1.01212
0.00155899 -0.299452 1.01212
0.00589657 -0.299456 1.01212
-0.00277016 -0.298554 1.00909
-0.00276942 -0.30302 1.00909
0.00156156 -0.303932 1.01212
0.00590098 -0.303935 1.01212
0.00156417 -0.308417 1.01212
0.00592313 -0.309344 1.01515
-0.00276868 -0.307492 1.00909
-0.00277624 -0.312907 1.01212
0.00156682 -0.312908 1.01212
0.00592768 -0.313849 1.01515
0.00156951 -0.317405 1.01212
0.0059323 -0.318359 1.01515
-0.00277547 -0.317404 1.01212
-0.0027747 -0.321907 1.01212
0.00157694 -0.322873 1.01515
0.00593698 -0.322876 1.01515
0.0015797 -0.327396 1.01515
0.00594174 -0.3274 1.01515
-0.00277391 -0.326417 1.01212
-0.00277312 -0.330933 1.01212
0.00158251 -0.331925 1.01515
-0.00712399 -0.330933 1.01212
-0.00712523 -0.335455 1.01212
-0.00277232 -0.335455 1.01212
0.00158535 -0.336461 1.01515
-0.00277151 -0.339984 1.01212
0.00158824 -0.341004 1.01515
-0.00712648 -0.339984 1.01212
-0.00712775 -0.34452 1.01212
-0.00277069 -0.34452 1.01212
0.00159116 -0.345553 1.01515
-0.00276986 -0.349062 1.01212
0.00159412 -0.350109 1.01515
-0.00712905 -0.349062 1.01212
-0.00713037 -0.353612 1.01212
-0.00277732 -0.35467 1.01515
0.00160188 -0.355731 1.01818
-0.00277648 -0.35924 1.01515
0.00160493 -0.360315 1.01818
-0.00713171 -0.358168 1.01212
-0.00713308 -0.362732 1.01212
-0.00277562 -0.363817 1.01515
0.00160801 -0.364905 1.01818
-0.00277476 -0.368402 1.01515
0.00161114 -0.369504 1.01818
-0.00713447 -0.367302 1.01212
-0.00713588 -0.371881 1.01212
-0.00277389 -0.372994 1.01515
0.0016143 -0.374109 1.01818
-0.00277302 -0.377593 1.01515
0.0016175 -0.378722 1.01818
-0.00715869 -0.377593 1.01515
-0.00716016 -0.3822 1.01515
-0.00277214 -0.3822 1.01515
0.00162074 -0.383343 1.01818
-0.00277125 -0.386815 1.01515
0.00162402 -0.387971 1.01818
-0.00716165 -0.386815 1.01515
-0.00716317 -0.391438 1.01515
-0.00277035 -0.391437 1.01515
0.00162734 -0.392608 1.01818
-0.00277772 -0.39725 1.01818
0.0016307 -0.397252 1.01818
-0.00716472 -0.396068 1.01515
-0.00718768 -0.401903 1.01818
-0.00277681 -0.401903 1.01818
0.0016341 -0.401905 1.01818
-0.00277589 -0.406564 1.01818
0.00164241 -0.407776 1.02121
-0.00718929 -0.406564 1.01818
-0.00719093 -0.411233 1.01818
-0.00278323 -0.412457 1.02121
0.0016459 -0.412459 1.02121
-0.0027823 -0.417149 1.02121
0.00164943 -0.417151 1.02121
-0.007214 -0.417149 1.02121
-0.0072157 -0.42185 1.02121
-0.00278137 -0.421849 1.02121
0.001653 -0.421852 1.02121
-0.00278868 -0.427825 1.02424
0.00166152 -0.427827 1.02424
-0.00721744 -0.426559 1.02121
-0.00724062 -0.432558 1.02424
-0.00278774 -0.432557 1.02424
0.00167011 -0.433839 1.02727
-0.00278678 -0.437299 1.02424
0.00166889 -0.437301 1.02424
-0.00724242 -0.437299 1.02424
-0.00722283 -0.440743 1.02121
-0.00278583 -0.44205 1.02424
0.00167263 -0.442052 1.02424
-0.00278487 -0.446811 1.02424
0.00167642 -0.446813 1.02424
-0.00724613 -0.446811 1.02424
-0.00724803 -0.451582 1.02424
-0.00278391 -0.451581 1.02424
0.00168521 -0.45292 1.02727
-0.00279118 -0.457712 1.02727
0.00169407 -0.459064 1.0303
-0.00724997 -0.456362 1.02424
-0.00725194 -0.461152 1.02424
-0.00279021 -0.462516 1.02727
-0.011722 -0.461156 1.02424
-0.011727 -0.465956 1.02424
-0.00727542 -0.467331 1.02727
-0.0162001 -0.465963 1.02424
-0.0162082 -0.470774 1.02424
-0.011732 -0.470767 1.02424
-0.0206845 -0.470783 1.02424
-0.0206958 -0.475605 1.02424
-0.0162644 -0.477002 1.02727
-0.0251755 -0.475618 1.02424
-0.0251901 -0.48045 1.02424
-0.0207685 -0.481859 1.02727
-0.0162727 -0.481849 1.02727
-0.0207802 -0.486716 1.02727
-0.0163292 -0.488142 1.0303
-0.0252794 -0.48673 1.02727
-0.0253691 -0.493049 1.0303
-0.0208533 -0.493035 1.0303
-0.0297973 -0.491615 1.02727
-0.0299037 -0.49796 1.0303
-0.0253843 -0.497943 1.0303
-0.0343223 -0.496516 1.02727
-0.0343443 -0.501408 1.02727
-0.0299225 -0.502867 1.0303
-0.0388548 -0.501432 1.02727
-0.0388804 -0.506336 1.02727
-0.0343667 -0.506312 1.02727
-0.0433948 -0.506364 1.02727
-0.0432962 -0.509772 1.02424
-0.0389065 -0.511252 1.02727
-0.0478014 -0.509803 1.02424
-0.0478345 -0.514718 1.02424
-0.0433259 -0.514686 1.02424
-0.052344 -0.514753 1.02424
-0.0520711 -0.516605 1.01818
-0.0475849 -0.516569 1.01818
-0.0432278 -0.518075 1.02121
-0.0474771 -0.519927 1.01515
-0.0431299 -0.521447 1.01818
-0.0517984 -0.518411 1.01212
-0.0563899 -0.515106 1.01515
-0.0608647 -0.515148 1.01515
-0.0655356 -0.516732 1.01818
-0.0698176 -0.515243 1.01515
-0.0745177 -0.516834 1.01818
-0.0387567 -0.52297 1.02121
-0.0388447 -0.519583 1.02424
-0.0344356 -0.521096 1.02727
-0.0389329 -0.51618 1.02727
-0.0343575 -0.524496 1.02424
-0.0344123 -0.516155 1.02727
-0.0298923 -0.516134 1.02727
-0.0343893 -0.511228 1.02727
-0.0298728 -0.511207 1.02727
-0.0254315 -0.512697 1.0303
-0.0299416 -0.507785 1.0303
-0.0254476 -0.517639 1.0303
-0.0254155 -0.507767 1.0303
-0.0209513 -0.509246 1.03333
-0.0253998 -0.502849 1.0303
-0.0209024 -0.512682 1.0303
-0.0209389 -0.504314 1.03333
-0.0164518 -0.505782 1.03636
-0.0208653 -0.497929 1.0303
-0.0164608 -0.510729 1.03636
-0.0164428 -0.500848 1.03636
-0.0118978 -0.500841 1.03636
-0.0163859 -0.494475 1.03333
-0.0119034 -0.505775 1.03636
-0.0118922 -0.495918 1.03636
-0.00737207 -0.497364 1.03939
-0.0118172 -0.488135 1.0303
-0.00737436 -0.502301 1.03939
-0.00728388 -0.486695 1.02727
-0.0027689 -0.483823 1.02121
-0.0117772 -0.481842 1.02727
-0.0117372 -0.475588 1.02424
-0.00723875 -0.478995 1.02121
-0.00727747 -0.472156 1.02727
-0.00278004 -0.470763 1.02424
-0.00279747 -0.468709 1.0303
0.00171199 -0.471469 1.03636
0.001706 -0.473551 1.0303
0.001703 -0.465247 1.03333
0.00621279 -0.465253 1.03333
0.00620587 -0.46042 1.03333
0.0107757 -0.463129 1.03939
0.00618086 -0.454261 1.0303
0.0107857 -0.46799 1.03939
0.0107659 -0.458277 1.03939
0.0152967 -0.458289 1.03939
0.0107248 -0.452114 1.03636
0.0153094 -0.46314 1.03939
0.0152841 -0.453448 1.03939
0.0198701 -0.454783 1.04242
0.0152716 -0.448616 1.03939
0.0198856 -0.459639 1.04242
0.0198547 -0.449938 1.04242
0.0107153 -0.447297 1.03636
0.0107059 -0.44249 1.03636
0.00614934 -0.443365 1.02727
0.00617413 -0.449462 1.0303
0.0152148 -0.4425 1.03636
0.00614279 -0.4386 1.02727
0.00615442 -0.435124 1.0303
0.0106653 -0.436412 1.03333
0.0152027 -0.437702 1.03636
0.0106561 -0.431637 1.03333
0.0151908 -0.432913 1.03636
0.00612992 -0.429098 1.02727
0.00610554 -0.423108 1.02424
0.0105846 -0.424368 1.02727
0.0151346 -0.426882 1.03333
0.0105445 -0.418401 1.02424
0.0150786 -0.420887 1.0303
0.00609932 -0.418394 1.02424
0.00609317 -0.413688 1.02424
0.0105357 -0.413695 1.02424
0.0150229 -0.414929 1.02727
0.0105271 -0.408998 1.02424
0.0150116 -0.410218 1.02727
0.0060871 -0.408991 1.02424
0.00606311 -0.403106 1.02121
0.0105186 -0.404309 1.02424
0.0150005 -0.405515 1.02727
0.0105101 -0.399629 1.02424
0.0149896 -0.400821 1.02727
0.0060572 -0.398439 1.02121
0.00605137 -0.393781 1.02121
0.0105018 -0.394956 1.02424
0.0149787 -0.396134 1.02727
0.0104936 -0.390292 1.02424
0.0149681 -0.391456 1.02727
0.00604561 -0.389131 1.02121
0.00603993 -0.384488 1.02121
0.0104855 -0.385636 1.02424
0.0149575 -0.386786 1.02727
0.0104775 -0.380988 1.02424
0.0149471 -0.382124 1.02727
0.00603431 -0.379854 1.02121
0.00602877 -0.375227 1.02121
0.0104386 -0.375234 1.02121
0.0148928 -0.376356 1.02424
0.0104309 -0.370614 1.02121
0.0148827 -0.371723 1.02424
0.0060233 -0.370608 1.02121
0.0060179 -0.365996 1.02121
0.0104232 -0.366002 1.02121
0.0148727 -0.367097 1.02424
0.0104156 -0.361398 1.02121
0.0148629 -0.362479 1.02424
0.00601257 -0.361391 1.02121
0.00600731 -0.356794 1.02121
0.0104082 -0.3568 1.02121
0.0148532 -0.357867 1.02424
0.0104008 -0.35221 1.02121
0.0148436 -0.353263 1.02424
0.00598431 -0.351158 1.01818
0.00597921 -0.346589 1.01818
0.0103935 -0.347626 1.02121
0.0148342 -0.348666 1.02424
0.0103864 -0.34305 1.02121
0.0148249 -0.344076 1.02424
0.00597417 -0.342026 1.01818
0.00595144 -0.336465 1.01515
0.0103793 -0.33848 1.02121
0.0147719 -0.338488 1.02121
0.0103416 -0.332926 1.01818
0.0147629 -0.333925 1.02121
0.00594655 -0.331929 1.01515
0.0103347 -0.328383 1.01818
0.014754 -0.329368 1.02121
0.010328 -0.323846 1.01818
0.0147452 -0.324817 1.02121
0.019132 -0.324827 1.02121
0.0147366 -0.320273 1.02121
0.0191996 -0.330355 1.02424
0.0191214 -0.320283 1.02121
0.0103213 -0.319315 1.01818
0.0103147 -0.314791 1.01818
0.014728 -0.315735 1.02121
0.019111 -0.315745 1.02121
0.0147196 -0.311204 1.02121
0.0191007 -0.311213 1.02121
0.0103083 -0.310273 1.01818
0.0103019 -0.305761 1.01818
0.0147114 -0.306678 1.02121
0.0190905 -0.306687 1.02121
0.0146596 -0.301261 1.01818
0.0190805 -0.302167 1.02121
0.010265 -0.300358 1.01515
0.0102588 -0.29587 1.01515
0.0146516 -0.296761 1.01818
0.0190707 -0.297653 1.02121
0.0146437 -0.292266 1.01818
0.019061 -0.293144 1.02121
0.0102527 -0.291389 1.01515
0.0102467 -0.286913 1.01515
0.0146359 -0.287776 1.01818
0.0190514 -0.288641 1.02121
0.0146283 -0.283292 1.01818
0.0189855 -0.283301 1.01818
0.0102409 -0.282442 1.01515
0.023482 -0.284997 1.02424
0.0234932 -0.289508 1.02424
0.0234016 -0.279662 1.02121
0.0278533 -0.280503 1.02424
0.027866 -0.285009 1.02424
0.0278407 -0.276003 1.02424
0.0323172 -0.276833 1.02727
0.0323314 -0.281347 1.02727
0.0322078 -0.271521 1.02424
0.0366961 -0.272339 1.02727
0.0368201 -0.277665 1.0303
0.0366806 -0.267835 1.02727
0.0411938 -0.268642 1.0303
0.041211 -0.273159 1.0303
0.0410558 -0.263353 1.02727
0.045581 -0.264147 1.0303
0.0458678 -0.27024 1.03636
0.0455628 -0.25964 1.0303
0.050113 -0.260422 1.03333
0.0500935 -0.255906 1.03333
0.0457525 -0.27398 1.03333
0.045906 -0.279333 1.03636
0.0413497 -0.278498 1.03333
0.0413675 -0.283039 1.03333
0.0368362 -0.282192 1.0303
0.0368524 -0.286725 1.0303
0.0413855 -0.287585 1.03333
0.0323459 -0.285866 1.02727
0.0323607 -0.290391 1.02727
0.036869 -0.291263 1.0303
0.0279614 -0.290377 1.02727
0.0279746 -0.294907 1.02727
0.0323756 -0.294921 1.02727
0.0235046 -0.294025 1.02424
0.0235161 -0.298547 1.02424
0.027988 -0.299442 1.02727
0.0324864 -0.30034 1.0303
0.0280016 -0.303984 1.02727
0.0325018 -0.304895 1.0303
0.0235278 -0.303074 1.02424
0.0235397 -0.307608 1.02424
0.0280154 -0.308531 1.02727
0.0325175 -0.309456 1.0303
0.0280294 -0.313084 1.02727
0.0325335 -0.314023 1.0303
0.0235518 -0.312148 1.02424
0.023564 -0.316693 1.02424
0.0280436 -0.317644 1.02727
0.0325497 -0.318596 1.0303
0.028058 -0.322209 1.02727
0.0325661 -0.323175 1.0303
0.0235765 -0.321245 1.02424
0.0235891 -0.325803 1.02424
0.0280726 -0.32678 1.02727
0.0325828 -0.32776 1.0303
0.0280875 -0.331358 1.02727
0.0325997 -0.332352 1.0303
0.0236717 -0.331344 1.02727
0.0236847 -0.335929 1.02727
0.0281854 -0.336934 1.0303
0.0192106 -0.334926 1.02424
0.0192217 -0.339503 1.02424
0.0236979 -0.340519 1.02727
0.0282007 -0.341538 1.0303
0.0237113 -0.345117 1.02727
0.0282163 -0.346149 1.0303
0.0192329 -0.344086 1.02424
0.0192444 -0.348677 1.02424
0.0237249 -0.349721 1.02727
0.0282321 -0.350767 1.0303
0.0237387 -0.354332 1.02727
0.028248 -0.355392 1.0303
0.019256 -0.353274 1.02424
0.0192677 -0.357878 1.02424
0.0237527 -0.35895 1.02727
0.0282642 -0.360024 1.0303
0.0237668 -0.363575 1.02727
0.0282807 -0.364663 1.0303
0.0193367 -0.363562 1.02727
0.0193488 -0.368194 1.02727
0.0238513 -0.369294 1.0303
0.0282973 -0.369309 1.0303
0.023866 -0.373947 1.0303
0.0283975 -0.375063 1.03333
0.019361 -0.372834 1.02727
0.0193735 -0.377481 1.02727
0.0238808 -0.378608 1.0303
0.0284147 -0.379738 1.03333
0.0238958 -0.383277 1.0303
0.0284321 -0.38442 1.03333
0.0193861 -0.382135 1.02727
0.0193989 -0.386798 1.02727
0.023911 -0.387953 1.0303
0.0284498 -0.389111 1.03333
0.0239264 -0.392637 1.0303
0.0284676 -0.393809 1.03333
0.0194691 -0.392623 1.0303
0.0194823 -0.397315 1.0303
0.023942 -0.397329 1.0303
0.0284858 -0.398515 1.03333
0.0239578 -0.40203 1.0303
0.0285041 -0.403229 1.03333
0.0194956 -0.402015 1.0303
0.0195091 -0.406724 1.0303
0.0240444 -0.407935 1.03333
0.0285228 -0.407952 1.03333
0.0240607 -0.412666 1.03333
0.0286253 -0.413894 1.03636
0.0195228 -0.41144 1.0303
0.0195941 -0.41739 1.03333
0.0240772 -0.417405 1.03333
0.0287283 -0.419871 1.03939
0.0242352 -0.424629 1.03939
0.0288315 -0.425886 1.04242
0.0196657 -0.423376 1.03636
0.0197376 -0.429399 1.03939
0.024323 -0.430666 1.04242
0.0288513 -0.430685 1.04242
0.0244111 -0.43674 1.04545
0.0289553 -0.436759 1.04545
0.0197522 -0.434192 1.03939
0.0198245 -0.440275 1.04242
0.0244287 -0.441572 1.04545
0.0289757 -0.441591 1.04545
0.0244465 -0.446412 1.04545
0.0289964 -0.446432 1.04545
0.0198395 -0.445102 1.04242
0.0244646 -0.451262 1.04545
0.0291014 -0.45259 1.04848
0.0245538 -0.457445 1.04848
0.0291226 -0.457464 1.04848
0.0337894 -0.45881 1.05152
0.0291442 -0.462349 1.04848
0.0338139 -0.463708 1.05152
0.0245724 -0.462329 1.04848
0.0336679 -0.452613 1.04848
0.0383456 -0.453946 1.05152
0.033644 -0.447748 1.04848
0.0384833 -0.460158 1.05455
0.0382083 -0.447773 1.04848
0.042897 -0.449095 1.05152
0.038182 -0.442917 1.04848
0.0429267 -0.453975 1.05152
0.0428678 -0.444225 1.05152
0.0336205 -0.442893 1.04848
0.0335973 -0.438047 1.04848
0.038156 -0.438071 1.04848
0.0428389 -0.439365 1.05152
0.0381303 -0.433234 1.04848
0.042687 -0.433261 1.04848
0.0334773 -0.431958 1.04545
0.0334548 -0.427145 1.04545
0.0379948 -0.427169 1.04545
0.0426589 -0.428433 1.04848
0.0378598 -0.42114 1.04242
0.042508 -0.42239 1.04545
0.0333356 -0.421116 1.04242
0.0333137 -0.416334 1.04242
0.0378353 -0.416358 1.04242
0.0424808 -0.417594 1.04545
0.0377012 -0.410388 1.03939
0.0423308 -0.41161 1.04242
0.0330985 -0.409169 1.03636
0.0330773 -0.404432 1.03636
0.0376773 -0.405637 1.03939
0.0423044 -0.406844 1.04242
0.0376538 -0.400894 1.03939
0.0422783 -0.402088 1.04242
0.0330563 -0.399703 1.03636
0.0330357 -0.394983 1.03636
0.0377403 -0.397315 1.04242
0.0422525 -0.397339 1.04242
0.0377174 -0.392575 1.04242
0.0423499 -0.39374 1.04545
0.0330153 -0.390271 1.03636
0.0329952 -0.385566 1.03636
0.0375852 -0.386715 1.03939
0.0423247 -0.388994 1.04545
0.0375629 -0.382004 1.03939
0.0421773 -0.383142 1.04242
0.032879 -0.379756 1.03333
0.0328595 -0.375081 1.03333
0.0375409 -0.377302 1.03939
0.0421529 -0.378425 1.04242
0.0374099 -0.37152 1.03636
0.0421289 -0.373715 1.04242
0.0328402 -0.370413 1.03333
0.0328212 -0.365753 1.03333
0.0373886 -0.366846 1.03636
0.0421051 -0.369014 1.04242
0.0373675 -0.362179 1.03636
0.0419594 -0.36326 1.03939
0.0328025 -0.3611 1.03333
0.032784 -0.356455 1.03333
0.0373468 -0.357519 1.03636
0.0419364 -0.358587 1.03939
0.0373264 -0.352867 1.03636
0.0419137 -0.35392 1.03939
0.0327658 -0.351816 1.03333
0.0327479 -0.347184 1.03333
0.0373062 -0.348221 1.03636
0.0418913 -0.349261 1.03939
0.0372863 -0.343582 1.03636
0.0418693 -0.344608 1.03939
0.0326342 -0.341555 1.0303
0.0326168 -0.33695 1.0303
0.0372667 -0.33895 1.03636
0.0418475 -0.339962 1.03939
0.0371385 -0.333347 1.03333
0.0417042 -0.334345 1.03636
0.0462966 -0.335345 1.03939
0.0416831 -0.329726 1.03636
0.0464552 -0.340976 1.04242
0.0462735 -0.330712 1.03939
0.0371195 -0.328742 1.03333
0.0371008 -0.324143 1.03333
0.0416623 -0.325113 1.03636
0.0462506 -0.326085 1.03939
0.0416419 -0.320507 1.03636
0.0462281 -0.321465 1.03939
0.0370824 -0.31955 1.03333
0.0370643 -0.314964 1.03333
0.0416217 -0.315906 1.03636
0.046206 -0.316851 1.03939
0.0416018 -0.311312 1.03636
0.0461841 -0.312243 1.03939
0.0370463 -0.310383 1.03333
0.0370287 -0.305809 1.03333
0.0415823 -0.306724 1.03636
0.0461626 -0.307641 1.03939
0.041563 -0.302142 1.03636
0.0461414 -0.303045 1.03939
0.0370113 -0.30124 1.03333
0.0368858 -0.295807 1.0303
0.0414225 -0.296695 1.03333
0.0459861 -0.297585 1.03636
0.0414039 -0.292137 1.03333
0.0459656 -0.293014 1.03636
0.0507014 -0.294748 1.04242
0.0460797 -0.289291 1.03939
0.0460598 -0.284718 1.03939
0.0508048 -0.286399 1.04545
0.0508267 -0.290999 1.04545
0.0556027 -0.288082 1.05152
0.0507238 -0.299347 1.04242
0.0508941 -0.304834 1.04545
0.0556998 -0.306625 1.05152
0.0509173 -0.309457 1.04545
0.055725 -0.311276 1.05152
0.0509409 -0.314086 1.04545
0.0509648 -0.318722 1.04545
0.0509891 -0.323363 1.04545
0.055803 -0.325263 1.05152
0.0558298 -0.329938 1.05152
0.0510137 -0.328011 1.04545
0.0510387 -0.332665 1.04545
0.051064 -0.337325 1.04545
0.0512378 -0.342983 1.04848
0.051264 -0.34767 1.04848
0.046344 -0.344631 1.03939
0.0463682 -0.349284 1.03939
0.0512906 -0.352364 1.04848
0.0513175 -0.357065 1.04848
0.0463927 -0.353944 1.03939
0.0464176 -0.35861 1.03939
0.0465782 -0.364344 1.04242
0.0513725 -0.366489 1.04848
0.0513448 -0.361773 1.04848
0.0514006 -0.371211 1.04848
0.0467394 -0.370111 1.04545
0.0467655 -0.374827 1.04545
0.0515777 -0.377027 1.05152
0.0516067 -0.381779 1.05152
0.0467919 -0.37955 1.04545
0.0468188 -0.384281 1.04545
0.0516361 -0.386537 1.05152
0.0516658 -0.391304 1.05152
0.0468459 -0.38902 1.04545
0.0468735 -0.393766 1.04545
0.051696 -0.396078 1.05152
0.0518757 -0.402016 1.05455
0.0469015 -0.398521 1.04545
0.0469298 -0.403284 1.04545
0.0519068 -0.406821 1.05455
0.0561789 -0.336548 1.05758
0.0562066 -0.341263 1.05758
0.0474561 -0.426092 1.05455
0.0474866 -0.430939 1.05455
0.0432043 -0.461509 1.05758
0.0386215 -0.466407 1.05758
0.0339363 -0.469968 1.05455
0.0339616 -0.474901 1.05455
0.0291881 -0.472148 1.04848
0.029166 -0.467243 1.04848
0.0246103 -0.472127 1.04848
0.0248432 -0.481178 1.05758
0.0245913 -0.467223 1.04848
0.0199592 -0.465855 1.04545
0.0199752 -0.470745 1.04545
0.0154117 -0.47073 1.04545
0.0201653 -0.479781 1.05455
0.0155143 -0.478388 1.05152
0.0108587 -0.475619 1.04545
0.0156619 -0.487506 1.06061
0.0202978 -0.487521 1.06061
0.0250054 -0.488932 1.06364
0.0204308 -0.495328 1.06667
0.0251681 -0.496754 1.0697
0.01581 -0.49672 1.0697
0.0205061 -0.501782 1.0697
0.0252599 -0.503223 1.07273
0.0157792 -0.500345 1.06667
0.0110792 -0.498911 1.06364
0.0157035 -0.502518 1.06061
0.0204654 -0.505405 1.06667
0.0111316 -0.496708 1.0697
0.0109949 -0.486101 1.05758
0.0252093 -0.50686 1.0697
0.0204248 -0.50901 1.06364
0.0251588 -0.51048 1.06667
0.0156728 -0.506094 1.05758
0.011006 -0.504631 1.05455
0.0156872 -0.511118 1.05758
0.0203843 -0.512599 1.06061
0.011017 -0.509641 1.05455
0.0109952 -0.499634 1.05455
0.00635854 -0.498189 1.05152
0.00636608 -0.503172 1.05152
0.00627787 -0.487531 1.03939
0.0062523 -0.481221 1.03636
0.00624512 -0.476342 1.03636
0.00625626 -0.472853 1.03939
0.00175289 -0.501716 1.04848
0.00637372 -0.508167 1.05152
0.00175211 -0.505232 1.04545
-0.00282443 -0.503765 1.04242
0.00175645 -0.51021 1.04545
0.00636305 -0.511695 1.04848
-0.00282343 -0.508728 1.04242
-0.00282542 -0.498813 1.04242
0.0017082 -0.485262 1.02424
-0.00737669 -0.50725 1.03939
-0.00281423 -0.51221 1.03939
0.00175573 -0.513706 1.04242
-0.00737906 -0.512211 1.03939
-0.0119091 -0.510721 1.03636
-0.00733844 -0.514168 1.03333
-0.00279684 -0.514167 1.03333
-0.0118453 -0.512664 1.0303
-0.0163737 -0.512671 1.0303
-0.0118163 -0.516083 1.02727
-0.00729784 -0.516079 1.02727
-0.0163349 -0.516091 1.02727
-0.0208537 -0.516102 1.02727
-0.0208665 -0.521041 1.02727
-0.0161032 -0.513345 1.01212
-0.0116827 -0.514874 1.01515
-0.011584 -0.515113 1.00606
-0.0207564 -0.52289 1.02121
-0.0159679 -0.513569 1.00303
-0.00719515 -0.518212 1.01212
-0.00275293 -0.521314 1.01818
-0.00723572 -0.516407 1.01818
-0.00276209 -0.517943 1.02121
0.00173824 -0.519483 1.02424
-0.00278766 -0.5176 1.0303
0.0017324 -0.521317 1.01818
0.00625486 -0.524426 1.02424
0.0108309 -0.527539 1.0303
0.00626537 -0.521026 1.02727
0.0108512 -0.52411 1.03333
0.00631285 -0.520654 1.03636
0.00174921 -0.519125 1.03333
0.00174991 -0.515677 1.03636
0.00634184 -0.518699 1.04242
0.0109555 -0.520217 1.04545
0.0109351 -0.523708 1.04242
0.0155659 -0.525244 1.04545
0.0154455 -0.52566 1.03636
0.0155961 -0.521738 1.04848
0.0202637 -0.523262 1.05152
0.0156714 -0.519708 1.05455
0.0201653 -0.525261 1.04545
0.0109759 -0.516708 1.04848
0.0109964 -0.513183 1.05152
0.00637084 -0.516699 1.04848
0.0156567 -0.514675 1.05455
0.0204023 -0.517649 1.06061
0.0204205 -0.522711 1.06061
0.0251516 -0.524225 1.06364
0.0251299 -0.519148 1.06364
0.0299696 -0.522129 1.0697
0.02518 -0.515547 1.06667
0.029825 -0.524249 1.06364
0.0345972 -0.525769 1.06667
0.0396201 -0.530281 1.07576
0.0440634 -0.52222 1.0697
0.0437786 -0.514195 1.06364
0.0485862 -0.515697 1.06667
0.0441179 -0.513492 1.07273
0.0393328 -0.517092 1.0697
0.048824 -0.513528 1.07273
0.0395241 -0.51491 1.07576
0.0348064 -0.51488 1.07576
0.0347365 -0.518526 1.07273
0.0440835 -0.508406 1.07273
0.0486484 -0.507006 1.0697
0.0537921 -0.511354 1.07879
0.0538335 -0.51647 1.07879
0.0588973 -0.519415 1.08485
0.0537241 -0.520132 1.07576
0.0587783 -0.523107 1.08182
0.0590166 -0.515706 1.08788
0.0639667 -0.51719 1.09091
0.0639186 -0.512027 1.09091
0.058972 -0.510559 1.08788
0.0539022 -0.507672 1.08182
0.0636937 -0.505468 1.08788
0.0540126 -0.503973 1.08485
0.0299447 -0.517035 1.0697
0.0348632 -0.525115 1.07576
0.0396992 -0.526624 1.07879
0.02992 -0.511953 1.0697
0.0248369 -0.526804 1.04848
0.0200669 -0.527214 1.03939
0.0247154 -0.528771 1.04242
0.0249584 -0.52479 1.05455
0.0293402 -0.52029 1.04545
0.0293655 -0.525305 1.04545
0.0338681 -0.523809 1.04242
0.0292208 -0.527258 1.03939
0.0337987 -0.527285 1.03939
0.0339377 -0.520317 1.04545
0.0383125 -0.517331 1.03939
0.0383447 -0.522317 1.03939
0.0429206 -0.522351 1.03939
0.0382653 -0.525779 1.03636
0.0427062 -0.524276 1.03333
0.042885 -0.517364 1.03939
0.0474582 -0.517401 1.03939
0.0474973 -0.522389 1.03939
0.0475579 -0.51392 1.04242
0.0521421 -0.51396 1.04242
0.047796 -0.511901 1.04848
0.0520325 -0.517442 1.03939
0.0566079 -0.517486 1.03939
0.0519233 -0.520907 1.03636
0.0564887 -0.520951 1.03636
0.0610554 -0.520999 1.03636
0.0562047 -0.522862 1.0303
0.0605694 -0.521373 1.02727
0.0516624 -0.522817 1.0303
0.061006 -0.516025 1.03636
0.0655704 -0.516075 1.03636
0.0616702 -0.517039 1.04848
0.0656233 -0.521051 1.03636
0.0657097 -0.512607 1.03939
0.0702853 -0.51266 1.03939
0.0701361 -0.51613 1.03636
0.070435 -0.509174 1.04242
0.0754581 -0.512191 1.04848
0.0748623 -0.512718 1.03939
0.0747032 -0.516187 1.03636
0.0795036 -0.517758 1.03939
0.0848226 -0.522352 1.04848
0.0793352 -0.521226 1.03636
0.0839089 -0.521292 1.03636
0.0887431 -0.522886 1.03939
0.0832401 -0.521667 1.02727
0.0877789 -0.521736 1.02727
0.0787029 -0.521601 1.02727
0.0739486 -0.52 1.02424
0.0783028 -0.523453 1.02121
0.0830624 -0.525073 1.02424
0.0745445 -0.51964 1.03333
0.0699872 -0.519582 1.03333
0.0694279 -0.519941 1.02424
0.0649087 -0.519886 1.02424
0.0692796 -0.523331 1.02121
0.0737904 -0.52339 1.02121
0.0645779 -0.521723 1.01818
0.060262 -0.523224 1.02121
0.0557552 -0.523175 1.02121
0.0514015 -0.524682 1.02424
0.0470222 -0.526193 1.02727
0.0426171 -0.527707 1.0303
0.0382982 -0.530776 1.03636
0.0472598 -0.524314 1.03333
0.0337294 -0.530745 1.03636
0.0293319 -0.533821 1.04242
0.0246659 -0.532245 1.03939
0.0200271 -0.530672 1.03636
0.0154155 -0.529104 1.03333
0.0875914 -0.525143 1.02424
0.0921222 -0.525217 1.02424
0.0923195 -0.521809 1.02727
0.0968619 -0.521886 1.02727
0.0966549 -0.525294 1.02424
0.101189 -0.525375 1.02424
0.101406 -0.521966 1.02727
0.105726 -0.52546 1.02424
0.110265 -0.525548 1.02424
0.114466 -0.524085 1.02121
0.0938778 -0.526008 1.04545
0.0897065 -0.523931 1.05152
0.079904 -0.515768 1.04545
0.0803046 -0.513732 1.05152
0.057222 -0.518486 1.05152
0.0530092 -0.517859 1.06061
0.0437243 -0.522846 1.06061
0.0578357 -0.519383 1.06364
0.0296325 -0.483957 1.06364
0.0343778 -0.48536 1.06667
-0.00723662 -0.474178 1.02121
-0.00271234 -0.469045 1
-0.0256138 -0.525667 1.03636
-0.0301768 -0.525685 1.03636
-0.0301088 -0.52913 1.03333
-0.0255556 -0.529111 1.03333
-0.0922233 -0.515542 1.01515
-0.0967092 -0.515612 1.01515
-0.100895 -0.514147 1.01212
-0.12145 -0.506866 0.99697
-0.121359 -0.502056 0.99697
-0.121173 -0.510133 0.993939
-0.134051 -0.512564 1.02727
-0.138194 -0.511153 1.02424
-0.142734 -0.511258 1.02424
-0.125509 -0.505487 1.03333
-0.106968 -0.485496 1.03333
-0.155685 -0.518397 1.01818
-0.156733 -0.526447 1.02424
-0.0403335 -0.0916789 0.987879
0.0391896 0.0212496 0.993939
0.0391891 0.025442 0.993939
0.0435185 0.0213137 0.99697
-0.0230611 0.053276 0.966667
-0.018983 0.0532759 0.966667
-0.0273121 0.0741257 0.972727
-0.0234244 0.0748177 0.981818
-0.0273981 0.078474 0.975758
-0.027314 0.0823355 0.972727
-0.0234981 0.0833606 0.984848
-0.0310279 0.0813106 0.960606
-0.0308334 0.084827 0.954545
-0.0268896 0.085095 0.957576
-0.0228482 0.085094 0.957576
-0.0268908 0.0891378 0.957576
-0.0188667 0.0853625 0.960606
-0.0309467 0.117466 0.957576
-0.0309443 0.113416 0.957576
-0.0310472 0.121902 0.960606
-0.0270747 0.122284 0.963636
-0.0270726 0.118207 0.963636
-0.0270769 0.126362 0.963636
-0.0230064 0.12636 0.963636
-0.0230046 0.122282 0.963636
-0.0230806 0.13085 0.966667
-0.018997 0.130848 0.966667
-0.0189361 0.126359 0.963636
-0.0189985 0.134942 0.966667
-0.0149147 0.134941 0.966667
-0.0149137 0.130847 0.966667
-0.0149624 0.139472 0.969697
-0.0108654 0.139471 0.969697
-0.010831 0.13494 0.966667
-0.0108659 0.143581 0.969697
-0.00678961 0.144029 0.972727
-0.00676848 0.139471 0.969697
-0.00678961 0.148154 0.972727
-0.00267877 0.148154 0.972727
-0.00267935 0.14403 0.972727
-0.00268653 0.152754 0.975758
0.00144221 0.15323 0.978788
0.00143656 0.148616 0.975758
0.00144344 0.157383 0.978788
0.00559853 0.157872 0.981818
0.0055794 0.153231 0.978788
0.00974684 0.153708 0.981818
0.00556034 0.148618 0.975758
0.00971436 0.149081 0.978788
0.00974932 0.157874 0.981818
0.0139432 0.158364 0.984848
0.0138972 0.15371 0.981818
0.0140323 0.163546 0.990909
0.0182227 0.16355 0.990909
0.0181074 0.158368 0.984848
0.0224089 0.159346 0.990909
0.0181036 0.154188 0.984848
0.022336 0.154667 0.987879
0.022482 0.164054 0.993939
0.0267674 0.164559 0.99697
0.0225553 0.168789 0.99697
0.0266808 0.159839 0.993939
0.0268542 0.169308 1
0.0183382 0.168785 0.99697
0.0226973 0.174079 1.00303
0.031085 0.169314 1
0.0309847 0.164565 0.99697
0.0353096 0.165071 1
0.0308847 0.159844 0.993939
0.0351961 0.160337 0.99697
0.039414 0.160344 0.99697
0.0351898 0.156106 0.99697
0.039407 0.156112 0.99697
0.030879 0.155625 0.993939
0.039541 0.165078 1
0.0437731 0.165086 1
0.0437652 0.160839 1
0.0481428 0.161334 1.00303
0.043625 0.156119 0.99697
0.0479891 0.156602 1
0.0523798 0.157085 1.00303
0.0479812 0.152358 1
0.0522129 0.152366 1
0.0436177 0.151889 0.99697
0.0394003 0.151882 0.99697
0.0434781 0.147212 0.993939
0.0478281 0.147668 0.99697
0.0392741 0.147205 0.993939
0.0350709 0.147199 0.993939
0.0390285 0.142119 0.987879
0.0433387 0.142562 0.990909
0.0348514 0.142114 0.987879
0.0350768 0.151414 0.993939
0.0307794 0.150947 0.990909
0.0306801 0.146296 0.987879
0.0264223 0.145842 0.984848
0.0305809 0.141673 0.984848
0.0263366 0.141232 0.981818
0.0265083 0.15048 0.987879
0.0265945 0.155146 0.990909
0.0222633 0.150014 0.984848
0.0222592 0.145838 0.984848
0.0180409 0.145386 0.981818
0.0221183 0.140792 0.978788
0.0179262 0.140353 0.975758
0.0180443 0.149549 0.981818
0.0138514 0.149084 0.978788
0.0138485 0.144934 0.978788
0.00968198 0.144483 0.975758
0.0137599 0.139914 0.972727
0.0096497 0.139911 0.972727
0.00552242 0.139473 0.969697
0.00964756 0.13579 0.972727
0.0137573 0.135793 0.972727
0.00552081 0.135365 0.969697
0.00555861 0.144481 0.975758
0.00143094 0.14403 0.972727
0.00142537 0.139472 0.969697
-0.00267157 0.139471 0.969697
0.00142429 0.135364 0.969697
-0.00266378 0.13494 0.966667
-0.00674736 0.13494 0.966667
-0.00266432 0.130847 0.966667
0.0014188 0.130847 0.966667
-0.00674739 0.130846 0.966667
-0.0108305 0.130846 0.966667
-0.00674744 0.126754 0.966667
-0.00266484 0.126754 0.966667
-0.0107961 0.126357 0.963636
-0.014866 0.126358 0.963636
-0.0107957 0.122279 0.963636
-0.00674749 0.122663 0.966667
-0.0148652 0.12228 0.963636
-0.0189348 0.122281 0.963636
-0.0148643 0.118203 0.963636
-0.0107953 0.118203 0.963636
-0.00674756 0.118574 0.966667
-0.00674763 0.114486 0.966667
-0.00266635 0.114486 0.966667
-0.00266586 0.118574 0.966667
0.00141588 0.118575 0.966667
-0.00266536 0.122664 0.966667
0.00141497 0.114487 0.966667
0.00141682 0.122664 0.966667
0.00551633 0.12305 0.969697
0.00141779 0.126755 0.966667
0.00551495 0.118948 0.969697
0.00551777 0.127154 0.969697
0.00961347 0.127155 0.969697
0.00551926 0.131259 0.969697
0.00961157 0.123052 0.969697
0.00961545 0.131261 0.969697
0.0137547 0.131673 0.972727
0.0137094 0.127158 0.969697
0.0178613 0.127558 0.972727
0.013707 0.123054 0.969697
0.0178584 0.123441 0.972727
0.0178642 0.131676 0.972727
0.0220425 0.132089 0.975758
0.017923 0.136218 0.975758
0.0219706 0.127561 0.972727
0.0220461 0.136222 0.975758
0.026251 0.136649 0.978788
0.0261656 0.132093 0.975758
0.0303833 0.132508 0.978788
0.0261617 0.127962 0.975758
0.0303788 0.128363 0.978788
0.030482 0.137076 0.981818
0.0346323 0.137081 0.981818
0.0346271 0.132923 0.981818
0.0388972 0.133338 0.984848
0.0345153 0.128368 0.978788
0.038772 0.12877 0.981818
0.0389028 0.13751 0.984848
0.0431997 0.137939 0.987879
0.043061 0.133344 0.984848
0.047371 0.133761 0.987879
0.0430551 0.129173 0.984848
0.0472192 0.129179 0.984848
0.0473777 0.137946 0.987879
0.0517146 0.138376 0.990909
0.0476754 0.143005 0.993939
0.0517073 0.134178 0.990909
0.0520386 0.143448 0.99697
0.0562572 0.143456 0.99697
0.0522047 0.148124 1
0.0560781 0.138807 0.993939
0.0602843 0.138815 0.993939
0.0558993 0.134185 0.990909
0.060276 0.134603 0.993939
0.0606607 0.143901 1
0.0650908 0.144346 1.00303
0.0610375 0.14904 1.00606
0.0646883 0.139247 0.99697
0.0566078 0.148582 1.00303
0.0567877 0.153298 1.00606
0.0691189 0.13968 1
0.0646794 0.135022 0.99697
0.0689001 0.135031 0.99697
0.068891 0.130807 0.99697
0.0644743 0.130401 0.993939
0.0600843 0.129996 0.990909
0.0644661 0.126192 0.993939
0.068673 0.1262 0.993939
0.0600766 0.1258 0.990909
0.0558847 0.125792 0.990909
0.0600694 0.121605 0.990909
0.0644584 0.121984 0.993939
0.055707 0.121226 0.987879
0.0558918 0.129988 0.990909
0.0515423 0.129583 0.987879
0.0515356 0.125401 0.987879
0.0472131 0.12501 0.984848
0.0515293 0.12122 0.987879
0.0472072 0.120842 0.984848
0.0429115 0.120465 0.981818
0.0472016 0.116675 0.984848
0.0515232 0.11704 0.987879
0.042774 0.115952 0.978788
0.0429169 0.12462 0.981818
0.0387668 0.124614 0.981818
0.0386422 0.120088 0.978788
0.0343993 0.119711 0.975758
0.0386375 0.115947 0.978788
0.034395 0.115584 0.975758
0.0345106 0.124225 0.978788
0.0303746 0.12422 0.978788
0.0302765 0.119707 0.975758
0.0260731 0.119332 0.972727
0.0301786 0.115221 0.972727
0.0260697 0.115217 0.972727
0.0261579 0.123832 0.975758
0.0219674 0.123444 0.972727
0.0219642 0.119328 0.972727
0.0178557 0.119326 0.972727
0.0219612 0.115214 0.972727
0.0177975 0.114853 0.969697
0.0137026 0.11485 0.969697
0.0137048 0.118951 0.969697
0.00960975 0.118949 0.969697
0.00960801 0.114848 0.969697
0.00551362 0.114847 0.969697
0.0343909 0.111458 0.975758
0.0385134 0.111462 0.975758
0.0427691 0.111813 0.978788
0.047051 0.112164 0.981818
0.047046 0.108012 0.981818
0.051196 0.108017 0.981818
0.0513595 0.112515 0.984848
0.0556944 0.112867 0.987879
0.0557005 0.117046 0.987879
0.0600624 0.117412 0.990909
0.0600559 0.11322 0.990909
0.064451 0.117778 0.993939
0.068657 0.117785 0.993939
0.0686648 0.121992 0.993939
0.0730946 0.122372 0.99697
0.0730863 0.118152 0.99697
0.0730784 0.113933 0.99697
0.0780041 0.11498 1.00606
0.0825041 0.111065 1.00909
-0.0230752 0.118577 0.966667
-0.0270706 0.114132 0.963636
-0.0270687 0.110057 0.963636
0.0482969 0.166095 1.00606
-0.055049 0.117117 0.954545
0.0142648 0.187437 1.00606
0.0143117 0.192299 1.00909
-0.0643178 0.115243 0.972727
0.0230603 0.275367 1.01212
-0.0723325 0.282382 1.02121
-0.0762086 0.276334 1.01515
-0.0718249 0.26316 1.01515
-0.0761269 0.258802 1.01515
-0.0761467 0.26318 1.01515
0 0 0
0 0 0
0 0 0
0 0 0
0 0 0
0 0 0
0 0 0
0 0 0
0 0 0
0 0 0
0 0 0
0 0 0
0 0 0
0 0 0
0 0 0
0 0 0
0 0 0
0 0 0
0 0 0
0 0 0
0 0 0
0 0 0
0 0 0
0 0 0
0 0 0
0 0 0
0 0 0
0 0 0
0 0 0
0 0 0
0 0 0
0 0 0
0 0 0
0 0 0
0 0 0
0 0 0
0 0 0
0 0 0
0 0 0
0 0 0
0 0 0
0 0 0
0 0 0
0 0 0
0 0 0
0 0 0
0 0 0
0 0 0
0 0 0
0 0 0
0 0 0
0 0 0
0 0 0
0 0 0
0 0 0
0 0 0
0 0 0
0 0 0
0 0 0
0 0 0
0 0 0
0 0 0
0 0 0
0 0 0
0 0 0
0 0 0
0 0 0
0 0 0
0 0 0
0 0 0
0 0 0
0 0 0
0 0 0
0 0 0
0 0 0
0 0 0
0 0 0
0 0 0
0 0 0
0 0 0
0 0 0
0 0 0
0 0 0
0 0 0
0 0 0
0 0 0
0 0 0
0 0 0
0 0 0
0 0 0
0 0 0
0 0 0
0 0 0
0 0 0
0 0 0
0 0 0
0 0 0
0 0 0
0 0 0
0 0 0
0 0 0
0 0 0
0 0 0
0 0 0
0 0 0
0 0 0
0 0 0
0 0 0
0 0 0
0 0 0
0 0 0
0 0 0
0 0 0
0 0 0
0 0 0
0 0 0
0 0 0
0 0 0
0 0 0
0 0 0
0 0 0
0 0 0
0 0 0
0 0 0
0 0 0
0 0 0
0 0 0
0 0 0
0 0 0
0 0 0
0 0 0
0 0 0
0 0 0
0 0 0
0 0 0
0 0 0
0 0 0
0 0 0
0 0 0
0 0 0
0 0 0
0 0 0
0 0 0
0 0 0
0 0 0
0 0 0
0 0 0
0 0 0
0 0 0
0 0 0
0 0 0
0 0 0
0 0 0
0 0 0
0 0 0
0 0 0
0 0 0
0 0 0
0 0 0
0 0 0
0 0 0
0 0 0
0 0 0
0 0 0
0 0 0
0 0 0
0 0 0
0 0 0
0 0 0
0 0 0
0 0 0
0 0 0
0 0 0
0 0 0
0 0 0
0 0 0
0 0 0
0 0 0
0 0 0
0 0 0
0 0 0
0 0 0
0 0 0
0 0 0
0 0 0
0 0 0
0 0 0
0 0 0
0 0 0
0 0 0
0 0 0
0 0 0
0 0 0
0 0 0
0 0 0
0 0 0
0 0 0
0 0 0
0 0 0
0 0 0
0 0 0
0 0 0
0 0 0
0 0 0
0 0 0
0 0 0
0 0 0
0 0 0
0 0 0
0 0 0
0 0 0
0 0 0
0 0 0
0 0 0
0 0 0
0 0 0
0 0 0
0 0 0
0 0 0
0 0 0
0 0 0
0 0 0
0 0 0
0 0 0
0 0 0
0 0 0
0 0 0
0 0 0
0 0 0
0 0 0
0 0 0
