# .PCD v0.7 - Point Cloud Data file format
VERSION 0.7
FIELDS x y z
SIZE 4 4 4
TYPE F F F
COUNT 1 1 1
WIDTH 1801
HEIGHT 1
VIEWPOINT 0 0 0 1 0 0 0
POINTS 1801
DATA ascii
-0.278337 0.495436 1.12727
-0.277426 0.488929 1.12424
-0.281665 0.487774 1.12121
-0.281501 0.482621 1.12121
-0.277265 0.483764 1.12424
-0.28649 0.482785 1.12121
-0.285552 0.476348 1.11818
-0.28058 0.476187 1.11818
-0.289742 0.475221 1.11515
-0.289578 0.470109 1.11515
-0.284617 0.469948 1.11515
-0.293744 0.468996 1.11212
-0.298703 0.469163 1.11212
-0.29358 0.463906 1.11212
-0.28863 0.463744 1.11212
-0.297722 0.462806 1.10909
-0.30267 0.462973 1.10909
-0.297557 0.457736 1.10909
-0.293418 0.458825 1.11212
-0.302502 0.457901 1.10909
-0.30284 0.468055 1.10909
-0.307798 0.468229 1.10909
-0.307624 0.463144 1.10909
-0.31173 0.462052 1.10606
-0.306613 0.456817 1.10606
-0.311556 0.456988 1.10606
-0.311907 0.467126 1.10606
-0.316683 0.462229 1.10606
-0.316506 0.457162 1.10606
-0.320581 0.456087 1.10303
-0.320404 0.45104 1.10303
-0.316332 0.452105 1.10606
-0.32535 0.451218 1.10303
-0.325172 0.446178 1.10303
-0.32023 0.446003 1.10303
-0.330121 0.446355 1.10303
-0.334157 0.44531 1.1
-0.329944 0.441321 1.10303
-0.324998 0.441147 1.10303
-0.333976 0.440287 1.1
-0.338922 0.440467 1.1
-0.333798 0.435273 1.1
-0.329769 0.436297 1.10303
-0.338741 0.435451 1.1
-0.339106 0.445493 1.1
-0.344062 0.445681 1.1
-0.342927 0.439438 1.09697
-0.347873 0.439624 1.09697
-0.34369 0.435632 1.1
-0.347686 0.434615 1.09697
-0.348063 0.444643 1.09697
-0.352826 0.439815 1.09697
-0.356798 0.438793 1.09394
-0.352636 0.434802 1.09697
-0.356605 0.433791 1.09394
-0.361556 0.433985 1.09394
-0.356415 0.428798 1.09394
-0.352449 0.429799 1.09697
-0.361363 0.428989 1.09394
-0.361753 0.438989 1.09394
-0.366715 0.439189 1.09394
-0.366515 0.434181 1.09394
-0.371481 0.434381 1.09394
-0.366318 0.429182 1.09394
-0.371281 0.429379 1.09394
-0.371685 0.439393 1.09394
-0.375619 0.438382 1.09091
-0.375413 0.433381 1.09091
-0.380381 0.433587 1.09091
-0.37521 0.428389 1.09091
-0.380175 0.428592 1.09091
-0.380591 0.438592 1.09091
-0.385571 0.438805 1.09091
-0.385358 0.433797 1.09091
-0.390343 0.434011 1.09091
-0.385148 0.428798 1.09091
-0.390129 0.429008 1.09091
-0.39056 0.439022 1.09091
-0.395557 0.439243 1.09091
-0.395336 0.434228 1.09091
-0.399226 0.433242 1.08788
-0.395119 0.429222 1.09091
-0.399006 0.428246 1.08788
-0.39945 0.438247 1.08788
-0.404451 0.438474 1.08788
-0.404223 0.433466 1.08788
-0.409229 0.433693 1.08788
-0.403999 0.428466 1.08788
-0.409002 0.42869 1.08788
-0.40946 0.438706 1.08788
-0.41309 0.432716 1.08485
-0.418101 0.43295 1.08485
-0.41286 0.427723 1.08485
-0.417866 0.427953 1.08485
-0.422883 0.428187 1.08485
-0.417636 0.422965 1.08485
-0.412633 0.422739 1.08485
-0.422648 0.423196 1.08485
-0.423121 0.433189 1.08485
-0.42815 0.433431 1.08485
-0.427908 0.428426 1.08485
-0.431734 0.42747 1.08182
-0.426476 0.422247 1.08182
-0.431493 0.422484 1.08182
-0.43198 0.432465 1.08182
-0.437015 0.432715 1.08182
-0.436766 0.427715 1.08182
-0.441807 0.427965 1.08182
-0.43652 0.422725 1.08182
-0.441558 0.42297 1.08182
-0.44206 0.432968 1.08182
-0.447116 0.433226 1.08182
-0.446859 0.428218 1.08182
-0.450655 0.427275 1.07879
-0.446606 0.423219 1.08182
-0.450399 0.422286 1.07879
-0.450916 0.432273 1.07879
-0.455979 0.432538 1.07879
-0.455714 0.427535 1.07879
-0.456248 0.43755 1.07879
-0.461052 0.432807 1.07879
-0.460783 0.4278 1.07879
-0.465864 0.428069 1.07879
-0.464287 0.421879 1.07576
-0.460519 0.422803 1.07879
-0.469361 0.422146 1.07576
-0.469093 0.417163 1.07576
-0.465331 0.418074 1.07879
-0.474174 0.417431 1.07576
-0.479266 0.417702 1.07576
-0.473907 0.412453 1.07576
-0.46883 0.41219 1.07576
-0.478995 0.41272 1.07576
-0.48273 0.411827 1.07273
-0.478728 0.407746 1.07576
-0.473644 0.407484 1.07576
-0.48246 0.406863 1.07273
-0.483005 0.416801 1.07273
-0.487828 0.412102 1.07273
-0.487553 0.407133 1.07273
-0.492658 0.407407 1.07273
-0.492384 0.402443 1.07273
-0.487283 0.402173 1.07273
-0.497497 0.402717 1.07273
-0.497224 0.397756 1.07273
-0.492115 0.397487 1.07273
-0.500926 0.396905 1.0697
-0.502072 0.393073 1.07273
-0.496955 0.392805 1.07273
-0.505769 0.392235 1.0697
-0.510897 0.392511 1.0697
-0.505498 0.387296 1.0697
-0.501804 0.388126 1.07273
-0.510621 0.387568 1.0697
-0.515758 0.387843 1.0697
-0.511796 0.383717 1.07273
-0.506662 0.38345 1.07273
-0.515483 0.382904 1.0697
-0.516038 0.392791 1.0697
-0.521192 0.393075 1.0697
-0.520908 0.388122 1.0697
-0.526071 0.388406 1.0697
-0.520629 0.383178 1.0697
-0.525787 0.383457 1.0697
-0.526359 0.393364 1.0697
-0.531541 0.393658 1.0697
-0.531248 0.388694 1.0697
-0.534919 0.387885 1.06667
-0.53096 0.38374 1.0697
-0.536146 0.384028 1.0697
-0.535215 0.392839 1.06667
-0.54041 0.393141 1.06667
-0.540109 0.388181 1.06667
-0.545313 0.388482 1.06667
-0.539813 0.383231 1.06667
-0.545013 0.383526 1.06667
-0.545619 0.393447 1.06667
-0.549278 0.392639 1.06364
-0.550533 0.388787 1.06667
-0.549593 0.397604 1.06364
-0.554822 0.397925 1.06364
-0.554502 0.392954 1.06364
-0.559741 0.393273 1.06364
-0.555767 0.389097 1.06667
-0.559422 0.388306 1.06364
-0.560066 0.39825 1.06364
-0.564996 0.393598 1.06364
-0.570266 0.393927 1.06364
-0.564672 0.388625 1.06364
-0.569937 0.388948 1.06364
-0.57358 0.388167 1.06061
-0.569614 0.383979 1.06364
-0.564354 0.383661 1.06364
-0.574891 0.384301 1.06364
-0.573913 0.393138 1.06061
-0.579201 0.393476 1.06061
-0.578863 0.3885 1.06061
-0.584162 0.388837 1.06061
-0.580184 0.384629 1.06364
-0.583825 0.383865 1.06061
-0.584505 0.39382 1.06061
-0.588141 0.393042 1.05758
-0.589478 0.38918 1.06061
-0.593112 0.388415 1.05758
-0.589136 0.384201 1.06061
-0.594464 0.384543 1.06061
-0.593464 0.393395 1.05758
-0.598805 0.393753 1.05758
-0.598447 0.388767 1.05758
-0.6038 0.389124 1.05758
-0.598095 0.38379 1.05758
-0.603443 0.384141 1.05758
-0.602432 0.392988 1.05455
-0.607426 0.388371 1.05455
-0.6128 0.388739 1.05455
-0.608809 0.384498 1.05758
-0.612433 0.383757 1.05455
-0.61782 0.384123 1.05455
-0.613832 0.379873 1.05758
-0.608453 0.379518 1.05758
-0.619229 0.380234 1.05758
-0.618193 0.389111 1.05455
-0.623226 0.384495 1.05455
-0.628652 0.384873 1.05455
-0.622855 0.37951 1.05455
-0.628275 0.379881 1.05455
-0.633714 0.380257 1.05455
-0.627904 0.374899 1.05455
-0.62249 0.374534 1.05455
-0.633338 0.375268 1.05455
-0.634097 0.385256 1.05455
-0.632969 0.370289 1.05455
-0.629344 0.370989 1.05758
-0.62392 0.37063 1.05758
-0.628986 0.366011 1.05758
-0.623567 0.365659 1.05758
-0.634424 0.366368 1.05758
-0.634067 0.361393 1.05758
-0.630436 0.362076 1.06061
-0.63952 0.361749 1.05758
-0.639164 0.356776 1.05758
-0.635533 0.357448 1.06061
-0.644632 0.357132 1.05758
-0.646123 0.35317 1.06061
-0.640645 0.35282 1.06061
-0.651621 0.353525 1.06061
-0.651267 0.348542 1.06061
-0.645774 0.348194 1.06061
-0.65678 0.348896 1.06061
-0.656427 0.343915 1.06061
-0.650919 0.343568 1.06061
-0.661956 0.344267 1.06061
-0.661604 0.339288 1.06061
-0.656081 0.338942 1.06061
-0.667149 0.339638 1.06061
-0.668704 0.335617 1.06364
-0.663149 0.335272 1.06364
-0.674281 0.335967 1.06364
-0.675851 0.33192 1.06667
-0.670264 0.331576 1.06667
-0.68146 0.33227 1.06667
-0.681111 0.327267 1.06667
-0.677426 0.327853 1.0697
-0.686738 0.327615 1.06667
-0.692386 0.327969 1.06667
-0.68639 0.322613 1.06667
-0.682703 0.323187 1.0697
-0.694 0.323877 1.0697
-0.6977 0.323312 1.06667
-0.693653 0.318862 1.0697
-0.687999 0.318521 1.0697
-0.697349 0.318304 1.06667
-0.696075 0.327395 1.06364
-0.699755 0.326824 1.06061
-0.70339 0.323669 1.06667
-0.70709 0.323111 1.06364
-0.701036 0.317749 1.06364
-0.707458 0.328127 1.06364
-0.7159 0.336948 1.07576
-0.719281 0.33131 1.07273
-0.689085 0.309743 1.05455
-0.691349 0.312966 1.06667
-0.683165 0.304481 1.05455
-0.686768 0.301281 1.06061
-0.688425 0.29988 1.05455
-0.682814 0.30218 1.04545
-0.692035 0.299343 1.05152
-0.690083 0.295807 1.05758
-0.689718 0.293581 1.04848
-0.697318 0.294752 1.05152
-0.701668 0.301399 1.05758
-0.68638 0.301633 1.04242
-0.682722 0.304736 1.03636
-0.68625 0.304183 1.03333
-0.681891 0.297577 1.02727
-0.696207 0.311205 1.03939
-0.696565 0.316106 1.03939
-0.698675 0.314478 1.05152
-0.685042 0.292226 1.02424
-0.691395 0.289523 1.05152
-0.691085 0.284624 1.05152
-0.697675 0.294213 1.0697
-0.695943 0.295566 1.07576
-0.692335 0.298879 1.0697
-0.688646 0.299411 1.07273
-0.688961 0.304403 1.07273
-0.687189 0.305805 1.07879
-0.689283 0.309402 1.07273
-0.686876 0.300791 1.07879
-0.685576 0.309952 1.07576
-0.679945 0.309633 1.07576
-0.683969 0.31408 1.07273
-0.681546 0.305491 1.07879
-0.678349 0.313755 1.07273
-0.687664 0.313521 1.0697
-0.682367 0.318186 1.0697
-0.676757 0.317855 1.0697
-0.677088 0.32285 1.0697
-0.671495 0.322518 1.0697
-0.671169 0.31753 1.0697
-0.671828 0.327514 1.0697
-0.666252 0.32718 1.0697
-0.665924 0.322191 1.0697
-0.664698 0.331236 1.06667
-0.659153 0.330902 1.06667
-0.660696 0.326851 1.0697
-0.657615 0.334932 1.06364
-0.652101 0.334597 1.06364
-0.653629 0.330573 1.06667
-0.652437 0.339569 1.06364
-0.646939 0.339233 1.06364
-0.64845 0.33522 1.06667
-0.647276 0.344207 1.06364
-0.641793 0.343869 1.06364
-0.641461 0.338902 1.06364
-0.640302 0.347851 1.06061
-0.634849 0.347513 1.06061
-0.63633 0.343536 1.06364
-0.635188 0.352476 1.06061
-0.629749 0.352137 1.06061
-0.629416 0.34718 1.06061
-0.630089 0.357102 1.06061
-0.624665 0.356762 1.06061
-0.626114 0.352808 1.06364
-0.625006 0.36173 1.06061
-0.619596 0.361388 1.06061
-0.621029 0.357445 1.06364
-0.619938 0.366358 1.06061
-0.614541 0.366016 1.06061
-0.618514 0.370277 1.05758
-0.615959 0.362083 1.06364
-0.614885 0.370988 1.06061
-0.609501 0.370645 1.06061
-0.613477 0.374896 1.05758
-0.609163 0.365678 1.06061
-0.608103 0.374547 1.05758
-0.618868 0.375251 1.05758
-0.604475 0.375275 1.06061
-0.604136 0.370306 1.06061
-0.603092 0.379168 1.05758
-0.599463 0.379908 1.06061
-0.599122 0.374936 1.06061
-0.595484 0.375671 1.06364
-0.598788 0.369972 1.06061
-0.595154 0.3707 1.06364
-0.594122 0.379567 1.06061
-0.5888 0.379232 1.06061
-0.590151 0.375341 1.06364
-0.584835 0.375015 1.06364
-0.589826 0.370375 1.06364
-0.584514 0.370055 1.06364
-0.583494 0.378901 1.06061
-0.579857 0.379657 1.06364
-0.581186 0.375762 1.06667
-0.575888 0.375445 1.06667
-0.58087 0.370793 1.06667
-0.575577 0.370482 1.06667
-0.574569 0.379335 1.06364
-0.569297 0.379018 1.06364
-0.570606 0.375133 1.06667
-0.56534 0.374825 1.06667
-0.570299 0.370176 1.06667
-0.565038 0.369874 1.06667
-0.565648 0.379785 1.06667
-0.560393 0.379477 1.06667
-0.56009 0.374522 1.06667
-0.560702 0.38444 1.06667
-0.555457 0.384131 1.06667
-0.555153 0.379173 1.06667
-0.549928 0.378874 1.06667
-0.554854 0.374224 1.06667
-0.551195 0.374992 1.0697
-0.550228 0.383826 1.06667
-0.544718 0.378579 1.06667
-0.541055 0.379364 1.0697
-0.545975 0.374702 1.0697
-0.540769 0.374416 1.0697
-0.535577 0.374135 1.0697
-0.540488 0.369477 1.0697
-0.536817 0.370247 1.07273
-0.545689 0.369758 1.0697
-0.535859 0.379077 1.0697
-0.530677 0.378795 1.0697
-0.530399 0.373857 1.0697
-0.526723 0.374643 1.07273
-0.531628 0.369974 1.07273
-0.526454 0.369705 1.07273
-0.525509 0.378516 1.0697
-0.520354 0.378243 1.0697
-0.521558 0.374373 1.07273
-0.516406 0.374107 1.07273
-0.521293 0.36944 1.07273
-0.517603 0.370222 1.07576
-0.516672 0.379044 1.07273
-0.511529 0.378777 1.07273
-0.511268 0.373846 1.07273
-0.506141 0.373588 1.07273
-0.512454 0.369964 1.07576
-0.507317 0.36971 1.07576
-0.506399 0.378515 1.07273
-0.501282 0.378256 1.07273
-0.502443 0.374389 1.07576
-0.501541 0.383187 1.07273
-0.496432 0.382928 1.07273
-0.496177 0.378002 1.07273
-0.496691 0.387862 1.07273
-0.491591 0.387602 1.07273
-0.491335 0.382673 1.07273
-0.49185 0.392541 1.07273
-0.486758 0.39228 1.07273
-0.486502 0.387347 1.07273
-0.487018 0.397222 1.07273
-0.481934 0.396962 1.07273
-0.481677 0.392024 1.07273
-0.482195 0.401908 1.07273
-0.478465 0.402781 1.07576
-0.478208 0.397826 1.07576
-0.473132 0.397572 1.07576
-0.477954 0.392878 1.07576
-0.472882 0.392629 1.07576
-0.473386 0.402523 1.07576
-0.468317 0.402269 1.07576
-0.468067 0.397322 1.07576
-0.468572 0.407225 1.07576
-0.46351 0.406971 1.07576
-0.46326 0.402019 1.07576
-0.463765 0.411931 1.07576
-0.460003 0.412836 1.07879
-0.459752 0.407866 1.07879
-0.460259 0.417815 1.07879
-0.455197 0.417559 1.07879
-0.454946 0.412584 1.07879
-0.455453 0.422542 1.07879
-0.450147 0.417307 1.07879
-0.446357 0.41823 1.08182
-0.449899 0.412336 1.07879
-0.446112 0.41325 1.08182
-0.441072 0.41301 1.08182
-0.444623 0.407136 1.07879
-0.440836 0.408043 1.08182
-0.449655 0.407375 1.07879
-0.441313 0.417986 1.08182
-0.43628 0.417745 1.08182
-0.436043 0.412773 1.08182
-0.431023 0.41254 1.08182
-0.43581 0.40781 1.08182
-0.430793 0.407581 1.08182
-0.431256 0.417508 1.08182
-0.426242 0.417274 1.08182
-0.426013 0.41231 1.08182
-0.421012 0.412085 1.08182
-0.425787 0.407355 1.08182
-0.42079 0.407133 1.08182
-0.421238 0.417045 1.08182
-0.417409 0.417986 1.08485
-0.417187 0.413016 1.08485
-0.412191 0.412797 1.08485
-0.415803 0.406915 1.08182
-0.410825 0.4067 1.08182
-0.41241 0.417764 1.08485
-0.408558 0.41871 1.08788
-0.408342 0.413734 1.08788
-0.408778 0.423696 1.08788
-0.403779 0.423476 1.08788
-0.403563 0.418494 1.08788
-0.399687 0.419446 1.09091
-0.40335 0.413521 1.08788
-0.399477 0.414463 1.09091
-0.3999 0.424438 1.09091
-0.394905 0.424225 1.09091
-0.394696 0.419237 1.09091
-0.389713 0.41903 1.09091
-0.394489 0.414257 1.09091
-0.38951 0.414054 1.09091
-0.389919 0.424015 1.09091
-0.384941 0.423808 1.09091
-0.384738 0.418827 1.09091
-0.379772 0.418628 1.09091
-0.385607 0.415004 1.09394
-0.38063 0.414807 1.09394
-0.379971 0.423605 1.09091
-0.37501 0.423406 1.09091
-0.374814 0.418431 1.09091
-0.370891 0.4194 1.09394
-0.375661 0.414614 1.09394
-0.3707 0.414424 1.09394
-0.370056 0.423209 1.09091
-0.366125 0.424192 1.09394
-0.365934 0.41921 1.09394
-0.360986 0.419023 1.09394
-0.365747 0.414237 1.09394
-0.360802 0.414053 1.09394
-0.361173 0.424001 1.09394
-0.356228 0.423814 1.09394
-0.356045 0.418839 1.09394
-0.352084 0.419818 1.09697
-0.35685 0.415018 1.09697
-0.351906 0.41484 1.09697
-0.352265 0.424804 1.09697
-0.347321 0.424623 1.09697
-0.347143 0.41964 1.09697
-0.347502 0.429615 1.09697
-0.343509 0.43062 1.1
-0.343331 0.425618 1.1
-0.338388 0.425443 1.1
-0.343155 0.420624 1.1
-0.338216 0.420452 1.1
-0.338563 0.430442 1.1
-0.334542 0.431453 1.10303
-0.33437 0.426442 1.10303
-0.329427 0.426273 1.10303
-0.334201 0.421441 1.10303
-0.329261 0.421274 1.10303
-0.329596 0.431281 1.10303
-0.324657 0.431111 1.10303
-0.324491 0.426107 1.10303
-0.324826 0.436125 1.10303
-0.31989 0.435956 1.10303
-0.320602 0.432129 1.10606
-0.320059 0.440975 1.10303
-0.315991 0.442018 1.10606
-0.315826 0.436987 1.10606
-0.31616 0.447057 1.10606
-0.311217 0.446888 1.10606
-0.311051 0.441852 1.10606
-0.311385 0.451934 1.10606
-0.306445 0.451766 1.10606
-0.30628 0.446723 1.10606
-0.302175 0.447784 1.10909
-0.306118 0.441689 1.10606
-0.302015 0.44274 1.10909
-0.302337 0.452838 1.10909
-0.297395 0.452676 1.10909
-0.297236 0.447625 1.10909
-0.293102 0.448691 1.11212
-0.29708 0.442583 1.10909
-0.292948 0.443638 1.11212
-0.293259 0.453753 1.11212
-0.288315 0.453597 1.11212
-0.288162 0.448537 1.11212
-0.288471 0.458666 1.11212
-0.284303 0.45976 1.11515
-0.28415 0.45468 1.11515
-0.284459 0.464849 1.11515
-0.280266 0.465957 1.11818
-0.280113 0.460856 1.11818
-0.280422 0.471067 1.11818
-0.276205 0.472188 1.12121
-0.275306 0.465804 1.11818
-0.27636 0.477319 1.12121
-0.271386 0.477164 1.12121
-0.271234 0.472036 1.12121
-0.272274 0.483606 1.12424
-0.268009 0.484755 1.12727
-0.267137 0.478302 1.12424
-0.262866 0.479442 1.12727
-0.266988 0.473162 1.12424
-0.26272 0.47429 1.12727
-0.263015 0.484604 1.12727
-0.25872 0.485758 1.1303
-0.258574 0.480585 1.1303
-0.25358 0.480441 1.1303
-0.257737 0.474147 1.12727
-0.253439 0.475281 1.1303
-0.254402 0.486914 1.13333
-0.249397 0.486771 1.13333
-0.249257 0.481589 1.13333
-0.244259 0.481452 1.13333
-0.248453 0.475143 1.1303
-0.244124 0.476282 1.13333
-0.244396 0.486632 1.13333
-0.240039 0.487797 1.13636
-0.239266 0.481318 1.13333
-0.234904 0.482474 1.13636
-0.239134 0.47615 1.13333
-0.234149 0.476021 1.13333
-0.235034 0.487663 1.13636
-0.230034 0.487533 1.13636
-0.229906 0.482345 1.13636
-0.230777 0.494044 1.13939
-0.225764 0.493915 1.13939
-0.225037 0.487406 1.13636
-0.220045 0.487282 1.13636
-0.224913 0.48222 1.13636
-0.219924 0.482098 1.13636
-0.220756 0.493789 1.13939
-0.215178 0.492352 1.13636
-0.215057 0.487161 1.13636
-0.2153 0.497554 1.13636
-0.21031 0.497432 1.13636
-0.210191 0.492233 1.13636
-0.210431 0.502642 1.13636
-0.205442 0.502521 1.13636
-0.205324 0.497314 1.13636
-0.20611 0.509093 1.13939
-0.200573 0.50762 1.13636
-0.199922 0.501064 1.13333
-0.200691 0.512847 1.13636
-0.195703 0.512729 1.13636
-0.195066 0.506151 1.13333
-0.19582 0.517965 1.13636
-0.190323 0.516468 1.13333
-0.196461 0.524606 1.13939
-0.19021 0.511248 1.13333
-0.190948 0.523093 1.13636
-0.185465 0.521584 1.13333
-0.191065 0.528349 1.13636
-0.185353 0.516355 1.13333
-0.186074 0.528232 1.13636
-0.196582 0.529878 1.13939
-0.191184 0.533615 1.13636
-0.185694 0.532074 1.13333
-0.180604 0.526711 1.13333
-0.175634 0.526601 1.13333
-0.180494 0.521473 1.13333
-0.175527 0.521365 1.13333
-0.170563 0.52126 1.13333
-0.175421 0.516139 1.13333
-0.170461 0.516036 1.13333
-0.180385 0.516246 1.13333
-0.170667 0.526495 1.13333
-0.165703 0.526392 1.13333
-0.165602 0.521159 1.13333
-0.160645 0.521061 1.13333
-0.165503 0.515937 1.13333
-0.160549 0.51584 1.13333
-0.160742 0.526292 1.13333
-0.155784 0.526196 1.13333
-0.15569 0.520966 1.13333
-0.151141 0.522267 1.13636
-0.155597 0.515747 1.13333
-0.151052 0.517035 1.13636
-0.150829 0.526103 1.13333
-0.146267 0.527419 1.13636
-0.151325 0.532763 1.13636
-0.146179 0.522178 1.13636
-0.146746 0.534092 1.13939
-0.141767 0.534004 1.13939
-0.141304 0.527333 1.13636
-0.136708 0.528655 1.13939
-0.141219 0.522093 1.13636
-0.136626 0.523402 1.13939
-0.13679 0.533918 1.13939
-0.131816 0.533837 1.13939
-0.131737 0.528574 1.13939
-0.126768 0.528497 1.13939
-0.131658 0.523323 1.13939
-0.126693 0.523247 1.13939
-0.126845 0.533758 1.13939
-0.1222 0.535102 1.14242
-0.122126 0.529828 1.14242
-0.117149 0.529757 1.14242
-0.122054 0.524565 1.14242
-0.11708 0.524495 1.14242
-0.117219 0.535029 1.14242
-0.112241 0.53496 1.14242
-0.112472 0.531094 1.14545
-0.107485 0.531028 1.14545
-0.112108 0.524428 1.14242
-0.107422 0.525755 1.14545
-0.107549 0.536313 1.14545
-0.102562 0.53625 1.14545
-0.102501 0.530966 1.14545
-0.102624 0.541545 1.14545
-0.0978933 0.542917 1.14848
-0.0978345 0.537609 1.14848
-0.0979529 0.548236 1.14848
-0.0977767 0.532312 1.14848
-0.0927828 0.532256 1.14848
-0.092729 0.526971 1.14848
-0.0879714 0.52831 1.15152
-0.0974619 0.525636 1.14545
-0.102441 0.525694 1.14545
-0.097406 0.520375 1.14545
-0.092676 0.521697 1.14848
-0.102382 0.520432 1.14545
-0.107076 0.519115 1.14242
-0.102053 0.513817 1.14242
-0.0973509 0.515124 1.14545
-0.107015 0.513876 1.14242
-0.111979 0.513938 1.14242
-0.106955 0.508648 1.14242
-0.101996 0.50859 1.14242
-0.111916 0.508709 1.14242
-0.112043 0.519178 1.14242
-0.117012 0.519244 1.14242
-0.116945 0.514003 1.14242
-0.121912 0.514071 1.14242
-0.116569 0.507424 1.13939
-0.12152 0.507491 1.13939
-0.121983 0.519313 1.14242
-0.126619 0.518007 1.13939
-0.126546 0.512779 1.13939
-0.131505 0.512853 1.13939
-0.126474 0.50756 1.13939
-0.13143 0.507633 1.13939
-0.131581 0.518083 1.13939
-0.136546 0.518161 1.13939
-0.136466 0.51293 1.13939
-0.141054 0.511645 1.13636
-0.136389 0.507709 1.13939
-0.140973 0.506437 1.13636
-0.141136 0.516864 1.13636
-0.146093 0.516948 1.13636
-0.146007 0.511728 1.13636
-0.150963 0.511814 1.13636
-0.145924 0.506519 1.13636
-0.150876 0.506604 1.13636
-0.155417 0.50534 1.13333
-0.150791 0.501403 1.13636
-0.145841 0.50132 1.13636
-0.155328 0.500152 1.13333
-0.155506 0.510538 1.13333
-0.160455 0.51063 1.13333
-0.160362 0.505431 1.13333
-0.16531 0.505524 1.13333
-0.16027 0.500241 1.13333
-0.164774 0.498996 1.1303
-0.165406 0.510725 1.13333
-0.17036 0.510824 1.13333
-0.170261 0.505621 1.13333
-0.174747 0.504369 1.1303
-0.170164 0.500429 1.13333
-0.174647 0.499189 1.1303
-0.175318 0.510925 1.13333
-0.180278 0.511029 1.13333
-0.179691 0.504471 1.1303
-0.185134 0.50593 1.13333
-0.179588 0.49929 1.1303
-0.184533 0.499394 1.1303
-0.185242 0.511137 1.13333
-0.190098 0.506039 1.13333
-0.189988 0.50084 1.13333
-0.194953 0.500951 1.13333
-0.194842 0.495761 1.13333
-0.189373 0.494326 1.1303
-0.199807 0.495872 1.13333
-0.199695 0.490691 1.13333
-0.194212 0.489269 1.1303
-0.205208 0.492116 1.13636
-0.204547 0.48563 1.13333
-0.19905 0.48422 1.1303
-0.209513 0.485744 1.13333
-0.209398 0.480578 1.13333
-0.204435 0.480466 1.13333
-0.214939 0.481979 1.13636
-0.21425 0.475536 1.13333
-0.209285 0.475422 1.13333
-0.219804 0.476924 1.13636
-0.22479 0.477044 1.13636
-0.219687 0.47176 1.13636
-0.214135 0.470387 1.13333
-0.22467 0.471878 1.13636
-0.229657 0.471999 1.13636
-0.224551 0.466721 1.13636
-0.219571 0.466604 1.13636
-0.229535 0.46684 1.13636
-0.22978 0.477167 1.13636
-0.234022 0.470864 1.13333
-0.239005 0.470991 1.13333
-0.233898 0.465717 1.13333
-0.238878 0.465842 1.13333
-0.243862 0.465969 1.13333
-0.238753 0.460701 1.13333
-0.233776 0.460579 1.13333
-0.243734 0.460827 1.13333
-0.243992 0.471121 1.13333
-0.248318 0.469994 1.1303
-0.248185 0.464854 1.1303
-0.252486 0.463741 1.12727
-0.248054 0.459723 1.1303
-0.252353 0.458621 1.12727
-0.253301 0.470129 1.1303
-0.257596 0.469007 1.12727
-0.257458 0.463877 1.12727
-0.261729 0.462768 1.12424
-0.257321 0.458755 1.12727
-0.261589 0.457659 1.12424
-0.26187 0.467887 1.12424
-0.266841 0.468031 1.12424
-0.266696 0.46291 1.12424
-0.270937 0.461807 1.12121
-0.266554 0.457798 1.12424
-0.270793 0.456706 1.12121
-0.271084 0.466916 1.12121
-0.275156 0.460706 1.11818
-0.275009 0.455616 1.11818
-0.279963 0.455764 1.11818
-0.279815 0.450682 1.11818
-0.274864 0.450537 1.11818
-0.283999 0.449609 1.11515
-0.283851 0.444546 1.11515
-0.279669 0.445608 1.11818
-0.288011 0.443486 1.11212
-0.287863 0.438444 1.11212
-0.283705 0.439493 1.11515
-0.292797 0.438593 1.11212
-0.296926 0.437549 1.10909
-0.292648 0.433557 1.11212
-0.288501 0.434592 1.11515
-0.296774 0.432525 1.10909
-0.301703 0.432676 1.10909
-0.296625 0.427508 1.10909
-0.292501 0.428529 1.11212
-0.301551 0.427657 1.10909
-0.301858 0.437704 1.10909
-0.305958 0.436665 1.10606
-0.305801 0.431648 1.10606
-0.310728 0.431806 1.10606
-0.305646 0.426641 1.10606
-0.310571 0.426795 1.10606
-0.310889 0.436824 1.10606
-0.315662 0.431966 1.10606
-0.315502 0.426953 1.10606
-0.320439 0.427114 1.10606
-0.320278 0.422107 1.10606
-0.315344 0.421948 1.10606
-0.325219 0.422267 1.10606
-0.325057 0.417266 1.10606
-0.32012 0.417108 1.10606
-0.330001 0.417427 1.10606
-0.334034 0.416447 1.10303
-0.328936 0.411301 1.10303
-0.324899 0.412272 1.10606
-0.33387 0.411462 1.10303
-0.338811 0.411626 1.10303
-0.334626 0.407601 1.10606
-0.329681 0.407442 1.10606
-0.338647 0.406645 1.10303
-0.338978 0.416614 1.10303
-0.342983 0.415639 1.1
-0.342814 0.410661 1.1
-0.347754 0.410831 1.1
-0.343591 0.406809 1.10303
-0.347585 0.405858 1.1
-0.347927 0.415811 1.1
-0.35173 0.409871 1.09697
-0.356672 0.410046 1.09697
-0.35253 0.406028 1.1
-0.356497 0.405082 1.09697
-0.361442 0.405257 1.09697
-0.356325 0.400125 1.09697
-0.35236 0.401061 1.1
-0.361267 0.400297 1.09697
-0.36162 0.410224 1.09697
-0.365564 0.409272 1.09394
-0.366395 0.405435 1.09697
-0.371355 0.405616 1.09697
-0.366217 0.400472 1.09697
-0.371174 0.40065 1.09697
-0.370513 0.409455 1.09394
-0.375471 0.409642 1.09394
-0.375284 0.404679 1.09394
-0.380246 0.404866 1.09394
-0.376139 0.400832 1.09697
-0.381112 0.401016 1.09697
-0.380436 0.409833 1.09394
-0.38541 0.410026 1.09394
-0.385216 0.405057 1.09394
-0.390391 0.410223 1.09394
-0.395381 0.410423 1.09394
-0.399271 0.409489 1.09091
-0.404264 0.409695 1.09091
-0.406992 0.407628 1.08485
-0.409463 0.40064 1.07879
-0.414424 0.40085 1.07879
-0.419394 0.401064 1.07879
-0.405807 0.392392 1.0697
-0.415648 0.392805 1.0697
-0.409559 0.391485 1.06667
-0.415439 0.387934 1.0697
-0.409355 0.386631 1.06667
-0.404457 0.38643 1.06667
-0.410316 0.38287 1.0697
-0.40311 0.380503 1.06364
-0.395969 0.378143 1.05758
-0.404065 0.376753 1.06667
-0.398047 0.375492 1.06364
-0.41128 0.379089 1.07273
-0.418561 0.38143 1.07879
-0.417587 0.385241 1.07576
-0.426113 0.388705 1.08485
-0.425906 0.383777 1.08485
-0.426324 0.39364 1.08485
-0.425347 0.397471 1.08182
-0.430129 0.392755 1.08182
-0.43112 0.388915 1.08485
-0.430347 0.397688 1.08182
-0.430568 0.40263 1.08182
-0.435356 0.39791 1.08182
-0.435135 0.392972 1.08182
-0.425565 0.402409 1.08182
-0.435581 0.402856 1.08182
-0.440603 0.403084 1.08182
-0.440374 0.398134 1.08182
-0.445403 0.398363 1.08182
-0.44015 0.393193 1.08182
-0.445175 0.393418 1.08182
-0.444387 0.402187 1.07879
-0.449416 0.402423 1.07879
-0.450442 0.398595 1.08182
-0.454216 0.397714 1.07879
-0.45021 0.393646 1.08182
-0.453981 0.392774 1.07879
-0.454455 0.402662 1.07879
-0.454698 0.407619 1.07879
-0.459505 0.402905 1.07879
-0.459262 0.397953 1.07879
-0.463014 0.397077 1.07576
-0.459023 0.393009 1.07879
-0.464076 0.393247 1.07879
-0.467822 0.392384 1.07576
-0.463838 0.388308 1.07879
-0.458789 0.388073 1.07879
-0.467581 0.387454 1.07576
-0.472637 0.387695 1.07576
-0.46866 0.38361 1.07879
-0.463604 0.383376 1.07879
-0.472397 0.382769 1.07576
-0.477461 0.38301 1.07576
-0.47349 0.378916 1.07879
-0.468427 0.378682 1.07879
-0.477221 0.378088 1.07576
-0.477706 0.38794 1.07576
-0.481425 0.387095 1.07273
-0.482537 0.383254 1.07576
-0.487624 0.383502 1.07576
-0.482293 0.378327 1.07576
-0.487376 0.378571 1.07576
-0.491084 0.377751 1.07273
-0.488505 0.374701 1.07879
-0.483411 0.374461 1.07879
-0.492224 0.373891 1.07576
-0.497328 0.374138 1.07576
-0.493368 0.370011 1.07879
-0.488265 0.369772 1.07879
-0.497081 0.369214 1.07576
-0.502193 0.369461 1.07576
-0.498239 0.365325 1.07879
-0.493129 0.365086 1.07879
-0.503361 0.365567 1.07879
-0.508496 0.365813 1.07879
-0.503119 0.360641 1.07879
-0.498001 0.360403 1.07879
-0.50825 0.360882 1.07879
-0.513394 0.361128 1.07879
-0.508009 0.355959 1.07879
-0.504294 0.356721 1.08182
-0.513149 0.3562 1.07879
-0.5122 0.365035 1.07576
-0.517346 0.365288 1.07576
-0.51855 0.361377 1.07879
-0.522248 0.360614 1.07576
-0.518301 0.356444 1.07879
-0.523466 0.356693 1.07879
-0.522504 0.365545 1.07576
-0.526189 0.364775 1.07273
-0.527415 0.36087 1.07576
-0.531096 0.360113 1.07273
-0.528645 0.356945 1.07879
-0.532337 0.356197 1.07576
-0.53136 0.365039 1.07273
-0.536544 0.365307 1.07273
-0.536276 0.360376 1.07273
-0.54147 0.360643 1.07273
-0.537528 0.356456 1.07576
-0.541203 0.355715 1.07273
-0.541742 0.36558 1.07273
-0.545409 0.364823 1.0697
-0.546678 0.360914 1.07273
-0.551901 0.36119 1.07273
-0.546407 0.355981 1.07273
-0.551625 0.356251 1.07273
-0.550621 0.365102 1.0697
-0.550906 0.370043 1.0697
-0.555847 0.365387 1.0697
-0.557138 0.36147 1.07273
-0.554561 0.369283 1.06667
-0.559792 0.369576 1.06667
-0.561089 0.365675 1.0697
-0.566345 0.365968 1.0697
-0.562389 0.361754 1.07273
-0.567656 0.362042 1.07273
-0.57132 0.361311 1.0697
-0.567369 0.357088 1.07273
-0.562106 0.356805 1.07273
-0.572647 0.357375 1.07273
-0.571617 0.366265 1.0697
-0.575271 0.365529 1.06667
-0.57497 0.360583 1.06667
-0.581903 0.361908 1.0697
-0.576308 0.356656 1.0697
-0.584897 0.358974 1.07576
-0.580559 0.365834 1.06667
-0.587529 0.367184 1.0697
-0.588881 0.36324 1.07273
-0.591901 0.360288 1.07879
-0.586248 0.354995 1.07879
-0.576017 0.351713 1.0697
-0.58431 0.349029 1.07576
-0.575732 0.346778 1.0697
-0.591303 0.350303 1.07879
-0.593315 0.348629 1.07273
-0.589352 0.344353 1.07576
-0.584025 0.344068 1.07576
-0.593021 0.343672 1.07273
-0.598367 0.343964 1.07273
-0.594408 0.339678 1.07576
-0.589068 0.339395 1.07576
-0.598075 0.339009 1.07273
-0.596973 0.347942 1.0697
-0.602325 0.348244 1.0697
-0.602024 0.343289 1.0697
-0.600925 0.352207 1.06667
-0.606284 0.352518 1.06667
-0.605973 0.347563 1.06667
-0.606601 0.357481 1.06667
-0.6052 0.361423 1.06364
-0.610244 0.356787 1.06364
-0.609923 0.351832 1.06364
-0.61057 0.361751 1.06364
-0.615627 0.357114 1.06364
-0.605528 0.366389 1.06364
-0.615301 0.352152 1.06364
-0.620699 0.352478 1.06364
-0.620374 0.347519 1.06364
-0.616734 0.348189 1.06667
-0.625785 0.347843 1.06364
-0.625461 0.342886 1.06364
-0.621822 0.343544 1.06667
-0.630886 0.343209 1.06364
-0.630564 0.338254 1.06364
-0.626925 0.338901 1.06667
-0.636003 0.338576 1.06364
-0.637493 0.334573 1.06667
-0.632044 0.334257 1.06667
-0.642962 0.334894 1.06667
-0.642642 0.329929 1.06667
-0.637178 0.329614 1.06667
-0.648125 0.330248 1.06667
-0.649647 0.326209 1.0697
-0.644153 0.325895 1.0697
-0.655161 0.326528 1.0697
-0.654843 0.321551 1.0697
-0.651173 0.322149 1.07273
-0.660373 0.321869 1.0697
-0.661927 0.317791 1.07273
-0.656386 0.317479 1.07273
-0.667488 0.318108 1.07273
-0.669057 0.314004 1.07576
-0.663484 0.313693 1.07576
-0.67465 0.31432 1.07576
-0.676234 0.310191 1.07879
-0.67063 0.30988 1.07879
-0.665047 0.309575 1.07879
-0.670325 0.304879 1.07879
-0.664747 0.304579 1.07879
-0.675925 0.305183 1.07879
-0.67752 0.301025 1.08182
-0.671909 0.300727 1.08182
-0.681238 0.300484 1.07879
-0.684763 0.297144 1.08485
-0.679119 0.296847 1.08485
-0.688499 0.296615 1.08182
-0.692226 0.296089 1.07879
-0.690127 0.292418 1.08485
-0.684466 0.292123 1.08485
-0.695809 0.292718 1.08485
-0.699554 0.292204 1.08182
-0.699395 0.289298 1.09091
-0.693686 0.289003 1.09091
-0.705128 0.289598 1.09091
-0.708908 0.289097 1.08788
-0.704829 0.284543 1.09091
-0.704658 0.282467 1.08182
-0.710408 0.281823 1.1
-0.716202 0.282117 1.1
-0.70329 0.291694 1.07879
-0.687998 0.288712 1.09091
-0.684228 0.289227 1.09394
-0.680723 0.292647 1.08788
-0.67509 0.292359 1.08788
-0.678567 0.288944 1.09394
-0.673497 0.296554 1.08485
-0.667896 0.296265 1.08485
-0.669478 0.292076 1.08788
-0.666319 0.300433 1.08182
-0.66075 0.300143 1.08182
-0.662316 0.295981 1.08485
-0.659189 0.304285 1.07879
-0.65365 0.303994 1.07879
-0.659484 0.309274 1.07879
-0.657036 0.300698 1.08485
-0.653942 0.308977 1.07879
-0.648419 0.308685 1.07879
-0.652401 0.313085 1.07576
-0.649953 0.304561 1.08182
-0.64689 0.312788 1.07576
-0.657933 0.313387 1.07576
-0.650865 0.317172 1.07273
-0.645365 0.31687 1.07273
-0.643844 0.320931 1.0697
-0.638374 0.320628 1.0697
-0.639884 0.316572 1.07273
-0.638678 0.325585 1.0697
-0.633222 0.325281 1.0697
-0.634716 0.321236 1.07273
-0.631733 0.329304 1.06667
-0.628087 0.329934 1.0697
-0.629564 0.325901 1.07273
-0.626613 0.333946 1.06667
-0.622966 0.334587 1.0697
-0.622664 0.329632 1.0697
-0.621509 0.338588 1.06667
-0.617861 0.339241 1.0697
-0.617558 0.334284 1.0697
-0.616419 0.34323 1.06667
-0.612771 0.343895 1.0697
-0.612466 0.338937 1.0697
-0.611345 0.347874 1.06667
-0.607388 0.34359 1.0697
-0.607088 0.338637 1.0697
-0.603433 0.3393 1.07273
-0.603142 0.334347 1.07273
-0.597788 0.334061 1.07273
-0.608513 0.334637 1.07273
-0.613901 0.334932 1.07273
-0.609941 0.330617 1.07576
-0.604559 0.330332 1.07576
-0.613607 0.329975 1.07273
-0.619008 0.330268 1.07273
-0.615051 0.325943 1.07576
-0.609656 0.325659 1.07576
-0.618716 0.325313 1.07273
-0.624131 0.325605 1.07273
-0.620176 0.32127 1.07576
-0.614768 0.320987 1.07576
-0.623839 0.320651 1.07273
-0.629268 0.320941 1.07273
-0.625315 0.316596 1.07576
-0.619894 0.316315 1.07576
-0.630755 0.316882 1.07576
-0.636214 0.317172 1.07576
-0.632246 0.312801 1.07879
-0.626795 0.312521 1.07879
-0.635925 0.312207 1.07576
-0.641398 0.312495 1.07576
-0.637432 0.308114 1.07879
-0.633742 0.3087 1.08182
-0.642916 0.308397 1.07879
-0.644438 0.304279 1.08182
-0.638943 0.304001 1.08182
-0.633467 0.303727 1.08182
-0.640459 0.299866 1.08485
-0.636745 0.300434 1.08788
-0.64777 0.300978 1.08788
-0.651491 0.300417 1.08485
-0.647497 0.295979 1.08788
-0.643767 0.296534 1.09091
-0.653033 0.296251 1.08788
-0.656755 0.295701 1.08485
-0.65458 0.292064 1.09091
-0.658314 0.291523 1.08788
-0.663886 0.291797 1.08788
-0.659878 0.287323 1.09091
-0.656132 0.287855 1.09394
-0.665461 0.287593 1.09091
-0.6692 0.287067 1.08788
-0.668888 0.284151 1.09697
-0.663278 0.283886 1.09697
-0.659504 0.284409 1.1
-0.664849 0.27963 1.1
-0.659248 0.279374 1.1
-0.670471 0.27989 1.1
-0.670212 0.274849 1.1
-0.664595 0.274595 1.1
-0.660812 0.275101 1.10303
-0.655218 0.274854 1.10303
-0.656775 0.270565 1.10606
-0.653665 0.279122 1.1
-0.649887 0.279642 1.10303
-0.653918 0.284151 1.1
-0.651428 0.275366 1.10606
-0.650137 0.28468 1.10303
-0.644573 0.284429 1.10303
-0.646819 0.288131 1.09697
-0.644327 0.279397 1.10303
-0.643053 0.288672 1.1
-0.652374 0.28839 1.09697
-0.650835 0.292607 1.09394
-0.645291 0.292343 1.09394
-0.639765 0.292084 1.09394
-0.638253 0.296269 1.09091
-0.632757 0.296008 1.09091
-0.636015 0.292636 1.09697
-0.631261 0.300168 1.08788
-0.627538 0.300742 1.09091
-0.628009 0.303457 1.08182
-0.629022 0.296573 1.09394
-0.624313 0.30404 1.08485
-0.618876 0.303777 1.08485
-0.622836 0.308153 1.08182
-0.623802 0.301318 1.09394
-0.61741 0.307885 1.08182
-0.62828 0.308424 1.08182
-0.621363 0.312244 1.07879
-0.615948 0.311972 1.07879
-0.616221 0.316928 1.07879
-0.610819 0.316654 1.07879
-0.61055 0.311704 1.07879
-0.611094 0.321612 1.07879
-0.605705 0.321337 1.07879
-0.605435 0.316385 1.07879
-0.604279 0.325379 1.07576
-0.598918 0.325103 1.07576
-0.600334 0.321066 1.07879
-0.599195 0.33005 1.07576
-0.593847 0.329773 1.07576
-0.595247 0.325747 1.07879
-0.594125 0.334722 1.07576
-0.588789 0.334444 1.07576
-0.588516 0.329501 1.07576
-0.584844 0.330159 1.07879
-0.589905 0.325479 1.07879
-0.584579 0.325215 1.07879
-0.58347 0.33417 1.07576
-0.579795 0.334841 1.07879
-0.583745 0.339115 1.07576
-0.579529 0.329894 1.07879
-0.578437 0.33884 1.07576
-0.57476 0.339523 1.07879
-0.577083 0.342819 1.07273
-0.574493 0.334574 1.07879
-0.573417 0.343511 1.07576
-0.568137 0.343239 1.07576
-0.572078 0.34748 1.07273
-0.569469 0.339255 1.07879
-0.56841 0.348184 1.07576
-0.563141 0.34791 1.07576
-0.567086 0.352141 1.07273
-0.562872 0.342971 1.07576
-0.563415 0.352858 1.07576
-0.57236 0.352423 1.07273
-0.556584 0.35159 1.07273
-0.557887 0.347641 1.07576
-0.556858 0.356526 1.07273
-0.551356 0.351321 1.07273
-0.547684 0.352047 1.07576
-0.552647 0.347376 1.07576
-0.548964 0.348093 1.07879
-0.543739 0.347835 1.07879
-0.548707 0.343154 1.07879
-0.545012 0.343864 1.08182
-0.553943 0.343411 1.07879
-0.54247 0.351785 1.07576
-0.538782 0.352517 1.07879
-0.538528 0.347581 1.07879
-0.53333 0.34733 1.07879
-0.53979 0.343615 1.08182
-0.534582 0.343368 1.08182
-0.533581 0.352262 1.07879
-0.528393 0.352011 1.07879
-0.52963 0.348059 1.08182
-0.524444 0.347816 1.08182
-0.53087 0.344087 1.08485
-0.525674 0.343847 1.08485
-0.523219 0.351763 1.07879
-0.519512 0.352507 1.08182
-0.519272 0.347576 1.08182
-0.515553 0.348313 1.08485
-0.52049 0.343612 1.08485
-0.51532 0.343379 1.08485
-0.514349 0.352266 1.08182
-0.509199 0.352029 1.08182
-0.510391 0.348079 1.08485
-0.505242 0.34785 1.08485
-0.511587 0.344109 1.08788
-0.506427 0.343883 1.08788
-0.504061 0.351796 1.08182
-0.500332 0.352551 1.08485
-0.500106 0.347624 1.08485
-0.499165 0.356487 1.08182
-0.494047 0.356256 1.08182
-0.493821 0.35134 1.08182
-0.492894 0.360169 1.07879
-0.489169 0.360949 1.08182
-0.490311 0.357027 1.08485
-0.489401 0.365876 1.08182
-0.4843 0.365644 1.08182
-0.484072 0.360721 1.08182
-0.483175 0.369536 1.07879
-0.478096 0.369304 1.07879
-0.47921 0.365416 1.08182
-0.478328 0.374225 1.07879
-0.473257 0.373992 1.07879
-0.474357 0.370113 1.08182
-0.469287 0.369887 1.08182
-0.474132 0.365191 1.08182
-0.470379 0.365991 1.08485
-0.469512 0.374813 1.08182
-0.464449 0.374587 1.08182
-0.464227 0.369665 1.08182
-0.463374 0.378453 1.07879
-0.459619 0.379289 1.08182
-0.459396 0.374364 1.08182
-0.459846 0.384222 1.08182
-0.454797 0.383995 1.08182
-0.454574 0.379066 1.08182
-0.45375 0.387843 1.07879
-0.449983 0.388704 1.08182
-0.449759 0.383771 1.08182
-0.44473 0.383551 1.08182
-0.450798 0.379907 1.08485
-0.445759 0.379691 1.08485
-0.444951 0.38848 1.08182
-0.439929 0.38826 1.08182
-0.440944 0.384408 1.08485
-0.435921 0.384194 1.08485
-0.44073 0.379477 1.08485
-0.435711 0.379267 1.08485
-0.434917 0.388043 1.08182
-0.430909 0.383984 1.08485
-0.431905 0.380119 1.08788
-0.426891 0.379915 1.08788
-0.420712 0.378656 1.08485
-0.42669 0.374989 1.08788
-0.421689 0.374792 1.08788
-0.431701 0.375189 1.08788
-0.436721 0.375393 1.08788
-0.431501 0.370267 1.08788
-0.426493 0.37007 1.08788
-0.436518 0.370467 1.08788
-0.441544 0.37067 1.08788
-0.436318 0.365549 1.08788
-0.432506 0.36637 1.09091
-0.44257 0.366767 1.09091
-0.44052 0.374554 1.08485
-0.445546 0.374763 1.08485
-0.44658 0.370877 1.08788
-0.450369 0.370053 1.08485
-0.446374 0.365951 1.08788
-0.451417 0.366157 1.08788
-0.450581 0.374976 1.08485
-0.455627 0.375193 1.08485
-0.455411 0.370265 1.08485
-0.460464 0.370481 1.08485
-0.45647 0.366366 1.08788
-0.460248 0.365557 1.08485
-0.465308 0.365773 1.08485
-0.461321 0.361648 1.08788
-0.456261 0.36144 1.08788
-0.465093 0.360852 1.08485
-0.47016 0.361067 1.08485
-0.466181 0.356934 1.08788
-0.462398 0.357719 1.09091
-0.471259 0.357145 1.08788
-0.476347 0.35736 1.08788
-0.471048 0.352222 1.08788
-0.467271 0.352995 1.09091
-0.476133 0.352432 1.08788
-0.475238 0.361285 1.08485
-0.478986 0.360497 1.08182
-0.480106 0.356582 1.08485
-0.485203 0.356802 1.08485
-0.48123 0.352646 1.08788
-0.484983 0.351881 1.08485
-0.490088 0.352101 1.08485
-0.486121 0.347935 1.08788
-0.482356 0.34869 1.09091
-0.491236 0.348152 1.08788
-0.496364 0.348371 1.08788
-0.49102 0.343226 1.08788
-0.487261 0.343969 1.09091
-0.497526 0.344398 1.09091
-0.50128 0.343661 1.08788
-0.49731 0.339462 1.09091
-0.492175 0.33925 1.09091
-0.502457 0.339677 1.09091
-0.506205 0.338952 1.08788
-0.503637 0.335673 1.09394
-0.498479 0.335461 1.09394
-0.507397 0.334958 1.09091
-0.512564 0.335176 1.09091
-0.508592 0.330944 1.09394
-0.503425 0.330733 1.09394
-0.512347 0.330241 1.09091
-0.511362 0.339174 1.08788
-0.51653 0.339399 1.08788
-0.516306 0.334466 1.08788
-0.521484 0.33469 1.08788
-0.517523 0.330458 1.09091
-0.522712 0.330678 1.09091
-0.520258 0.338681 1.08485
-0.525438 0.338912 1.08485
-0.526674 0.334917 1.08788
-0.531878 0.335148 1.08788
-0.526447 0.329982 1.08788
-0.531647 0.330209 1.08788
-0.530631 0.339147 1.08485
-0.535836 0.339386 1.08485
-0.535598 0.334449 1.08485
-0.540814 0.334686 1.08485
-0.53686 0.330439 1.08788
-0.540577 0.329751 1.08485
-0.539544 0.338679 1.08182
-0.544763 0.338925 1.08182
-0.546043 0.334927 1.08485
-0.549747 0.334236 1.08182
-0.545803 0.329988 1.08485
-0.551042 0.330228 1.08485
-0.549995 0.339173 1.08182
-0.555242 0.339426 1.08182
-0.554989 0.334484 1.08182
-0.558677 0.333798 1.07879
-0.556296 0.330472 1.08485
-0.559995 0.329795 1.08182
-0.558932 0.338731 1.07879
-0.559193 0.343672 1.07879
-0.564193 0.338991 1.07879
-0.563934 0.334053 1.07879
-0.569206 0.334311 1.07879
-0.565263 0.330046 1.08182
-0.570546 0.3303 1.08182
-0.575844 0.330558 1.08182
-0.570292 0.325357 1.08182
-0.566596 0.326018 1.08485
-0.575586 0.32561 1.08182
-0.580896 0.325867 1.08182
-0.576945 0.321567 1.08485
-0.57164 0.321318 1.08485
-0.582266 0.32182 1.08485
-0.58596 0.321177 1.08182
-0.582014 0.316867 1.08485
-0.576697 0.316619 1.08485
-0.587346 0.317118 1.08485
-0.591038 0.316486 1.08182
-0.587095 0.312166 1.08485
-0.581767 0.31192 1.08485
-0.59244 0.312416 1.08485
-0.591297 0.321436 1.08182
-0.596651 0.3217 1.08182
-0.596388 0.316745 1.08182
-0.600068 0.316119 1.07879
-0.5978 0.31267 1.08485
-0.601492 0.312054 1.08182
-0.60687 0.312314 1.08182
-0.60292 0.307967 1.08485
-0.597547 0.307715 1.08485
-0.60661 0.307362 1.08182
-0.612001 0.307622 1.08182
-0.608054 0.303264 1.08485
-0.604351 0.30386 1.08788
-0.613456 0.303519 1.08485
-0.598967 0.303612 1.08788
-0.605787 0.299731 1.09091
-0.600392 0.299488 1.09091
-0.612897 0.300811 1.09394
-0.618341 0.301063 1.09394
-0.614347 0.296643 1.09697
-0.619802 0.29689 1.09697
-0.625275 0.29714 1.09697
-0.622979 0.293502 1.10303
-0.617497 0.293259 1.10303
-0.626752 0.292941 1.1
-0.630511 0.292383 1.09697
-0.628232 0.288721 1.10303
-0.622737 0.28848 1.10303
-0.632004 0.288172 1.1
-0.63752 0.28842 1.1
-0.633501 0.283939 1.10303
-0.627992 0.2837 1.10303
-0.639028 0.284182 1.10303
-0.640541 0.279923 1.10606
-0.635002 0.279685 1.10606
-0.629482 0.27945 1.10606
-0.643812 0.276395 1.11212
-0.647626 0.275879 1.10909
-0.643579 0.27134 1.11212
-0.64739 0.270832 1.10909
-0.651189 0.270326 1.10606
-0.623978 0.279219 1.10606
-0.625461 0.274952 1.10909
-0.624211 0.284242 1.10606
-0.618721 0.28401 1.10606
-0.618493 0.278991 1.10606
-0.617259 0.288242 1.10303
-0.613479 0.288799 1.10606
-0.614929 0.284558 1.10909
-0.613714 0.293825 1.10606
-0.606585 0.292784 1.10303
-0.610591 0.297219 1.1
-0.608019 0.288568 1.10606
-0.605154 0.296978 1.1
-0.599734 0.296742 1.1
-0.601153 0.292552 1.10303
-0.596666 0.300079 1.09394
-0.592926 0.300673 1.09697
-0.595253 0.304213 1.09091
-0.59433 0.296509 1.1
-0.591525 0.304816 1.09394
-0.586159 0.304578 1.09394
-0.588489 0.308079 1.08788
-0.585925 0.299609 1.09394
-0.583149 0.307838 1.08788
-0.59219 0.307466 1.08485
-0.579435 0.308456 1.09091
-0.580809 0.304343 1.09394
-0.578064 0.312548 1.08788
-0.572752 0.312309 1.08788
-0.574111 0.308221 1.09091
-0.571396 0.316375 1.08485
-0.567691 0.317018 1.08788
-0.569035 0.312942 1.09091
-0.56635 0.321073 1.08485
-0.562642 0.321728 1.08788
-0.562405 0.316781 1.08788
-0.561317 0.325772 1.08485
-0.556053 0.325529 1.08485
-0.557367 0.32149 1.08788
-0.552106 0.321255 1.08788
-0.557133 0.316547 1.08788
-0.553412 0.317198 1.09091
-0.550803 0.32529 1.08485
-0.547091 0.325963 1.08788
-0.546859 0.321023 1.08788
-0.543134 0.321689 1.09091
-0.548154 0.316971 1.09091
-0.54291 0.316747 1.09091
-0.541854 0.325731 1.08788
-0.538126 0.326408 1.09091
-0.5379 0.321464 1.09091
-0.534159 0.322135 1.09394
-0.539173 0.317406 1.09394
-0.53542 0.318067 1.09697
-0.532902 0.326182 1.09091
-0.52769 0.32596 1.09091
-0.528937 0.321916 1.09394
-0.525178 0.322592 1.09697
-0.530187 0.317852 1.09697
-0.526416 0.318517 1.1
-0.523944 0.326645 1.09394
-0.518744 0.326429 1.09394
-0.518531 0.321488 1.09394
-0.514769 0.322169 1.09697
-0.521194 0.318308 1.1
-0.515984 0.318102 1.1
-0.513556 0.326215 1.09394
-0.509789 0.326908 1.09697
-0.509583 0.321963 1.09697
-0.504408 0.321759 1.09697
-0.510787 0.317899 1.1
-0.506994 0.318575 1.10303
-0.504612 0.326701 1.09697
-0.500826 0.327399 1.1
-0.500625 0.322448 1.1
-0.499651 0.33144 1.09697
-0.494494 0.331235 1.09697
-0.495658 0.327197 1.1
-0.493333 0.335253 1.09394
-0.488199 0.335047 1.09394
-0.489349 0.331033 1.09697
-0.488405 0.339982 1.09394
-0.484617 0.340717 1.09697
-0.484414 0.335772 1.09697
-0.482146 0.343759 1.09091
-0.478367 0.344507 1.09394
-0.479488 0.340514 1.09697
-0.477248 0.34848 1.09091
-0.473464 0.34924 1.09394
-0.473259 0.344303 1.09394
-0.469459 0.345055 1.09697
-0.47568 0.341253 1.1
-0.470558 0.341055 1.1
-0.468364 0.349035 1.09394
-0.464558 0.3498 1.09697
-0.465642 0.34581 1.1
-0.462192 0.35279 1.09091
-0.458394 0.353568 1.09394
-0.459465 0.349601 1.09697
-0.457327 0.357514 1.09091
-0.453522 0.358304 1.09394
-0.453323 0.353369 1.09394
-0.452468 0.362241 1.09091
-0.447414 0.362038 1.09091
-0.448457 0.358105 1.09394
-0.444631 0.3589 1.09697
-0.448261 0.353173 1.09394
-0.444437 0.353958 1.09697
-0.442371 0.361838 1.09091
-0.437336 0.361642 1.09091
-0.438358 0.357715 1.09394
-0.434523 0.358515 1.09697
-0.439381 0.353768 1.09697
-0.434335 0.35358 1.09697
-0.433513 0.362452 1.09394
-0.428484 0.362262 1.09394
-0.428296 0.357337 1.09394
-0.427487 0.366176 1.09091
-0.422479 0.365985 1.09091
-0.423464 0.362074 1.09394
-0.422669 0.370907 1.09091
-0.417667 0.370716 1.09091
-0.417479 0.365798 1.09091
-0.416697 0.374597 1.08788
-0.411714 0.374407 1.08788
-0.41573 0.378459 1.08485
-0.412673 0.370528 1.09091
-0.410758 0.378266 1.08485
-0.406928 0.379131 1.08788
-0.407873 0.375261 1.09091
-0.404013 0.376117 1.09394
-0.407688 0.370342 1.09091
-0.40383 0.371189 1.09394
-0.404199 0.381054 1.09394
-0.399211 0.380867 1.09394
-0.400134 0.376976 1.09697
-0.396235 0.377836 1.1
-0.399953 0.372037 1.09697
-0.394966 0.37186 1.09697
-0.396416 0.382793 1.1
-0.391417 0.382612 1.1
-0.39124 0.377658 1.1
-0.386252 0.377484 1.1
-0.391065 0.372712 1.1
-0.38608 0.37254 1.1
-0.386427 0.382434 1.1
-0.381445 0.382259 1.1
-0.386605 0.387392 1.1
-0.382323 0.378351 1.10303
-0.38162 0.387214 1.1
-0.376643 0.387038 1.1
-0.381798 0.392176 1.1
-0.37647 0.382087 1.1
-0.376818 0.391997 1.1
-0.371845 0.391822 1.1
-0.375958 0.395871 1.09697
-0.371673 0.386866 1.1
-0.372021 0.396786 1.1
-0.380928 0.396052 1.09697
-0.367053 0.39661 1.1
-0.36688 0.391649 1.1
-0.361923 0.39148 1.1
-0.366711 0.386696 1.1
-0.362753 0.387595 1.10303
-0.362092 0.396438 1.1
-0.357139 0.396268 1.1
-0.356973 0.391313 1.1
-0.352999 0.392227 1.10303
-0.357792 0.38743 1.10303
-0.352838 0.387269 1.10303
-0.353164 0.397192 1.10303
-0.348211 0.397028 1.10303
-0.34805 0.392066 1.10303
-0.347418 0.400894 1.1
-0.343427 0.401834 1.10303
-0.343266 0.396867 1.10303
-0.339257 0.397798 1.10606
-0.343107 0.391907 1.10303
-0.3391 0.392828 1.10606
-0.338486 0.401673 1.10303
-0.334467 0.402618 1.10606
-0.334311 0.397642 1.10606
-0.329372 0.397489 1.10606
-0.334158 0.392674 1.10606
-0.330124 0.393599 1.10909
-0.329526 0.402462 1.10606
-0.32548 0.403411 1.10909
-0.325329 0.398427 1.10909
-0.324743 0.407287 1.10606
-0.320688 0.408249 1.10909
-0.320537 0.40326 1.10909
-0.320841 0.413246 1.10909
-0.315899 0.413093 1.10909
-0.315749 0.408098 1.10909
-0.316052 0.418094 1.10909
-0.311114 0.417942 1.10909
-0.310964 0.412942 1.10909
-0.311267 0.422949 1.10909
-0.306331 0.422797 1.10909
-0.306181 0.417792 1.10909
-0.302078 0.418786 1.11212
-0.306034 0.412795 1.10909
-0.301933 0.413778 1.11212
-0.301402 0.422647 1.10909
-0.296478 0.4225 1.10909
-0.297144 0.418641 1.11212
-0.292216 0.418499 1.11212
-0.297002 0.413635 1.11212
-0.292076 0.413496 1.11212
-0.292357 0.42351 1.11212
-0.288215 0.424522 1.11515
-0.288076 0.4195 1.11515
-0.288357 0.429553 1.11515
-0.28342 0.429412 1.11515
-0.283281 0.424383 1.11515
-0.283561 0.434448 1.11515
-0.279385 0.435487 1.11818
-0.279246 0.43044 1.11818
-0.279526 0.440544 1.11818
-0.274581 0.440403 1.11818
-0.274443 0.435349 1.11818
-0.274721 0.445465 1.11818
-0.27051 0.446532 1.12121
-0.270372 0.441458 1.12121
-0.27065 0.451615 1.12121
-0.266415 0.452695 1.12424
-0.265559 0.446395 1.12121
-0.261318 0.447466 1.12424
-0.265424 0.441323 1.12121
-0.261186 0.442383 1.12424
-0.261453 0.452558 1.12424
-0.257187 0.453643 1.12727
-0.257055 0.44854 1.12727
-0.252092 0.44841 1.12727
-0.256925 0.443445 1.12727
-0.251965 0.443318 1.12727
-0.252222 0.453512 1.12727
-0.247926 0.454602 1.1303
-0.247799 0.449489 1.1303
-0.242832 0.449365 1.1303
-0.247674 0.444384 1.1303
-0.242711 0.444262 1.1303
-0.242956 0.454475 1.1303
-0.238629 0.45557 1.13333
-0.238508 0.450448 1.13333
-0.233537 0.450329 1.13333
-0.238389 0.445334 1.13333
-0.233421 0.445217 1.13333
-0.233656 0.455449 1.13333
-0.229298 0.456549 1.13636
-0.229182 0.451417 1.13636
-0.229415 0.46169 1.13636
-0.224434 0.461573 1.13636
-0.224319 0.456433 1.13636
-0.219345 0.456321 1.13636
-0.224206 0.451303 1.13636
-0.219235 0.451192 1.13636
-0.219457 0.461458 1.13636
-0.213912 0.460116 1.13333
-0.214375 0.456211 1.13636
-0.214023 0.465247 1.13333
-0.209064 0.465137 1.13333
-0.208956 0.460008 1.13333
-0.209174 0.470275 1.13333
-0.204216 0.470166 1.13333
-0.204109 0.465029 1.13333
-0.204324 0.475311 1.13333
-0.198834 0.473932 1.1303
-0.198729 0.468802 1.1303
-0.198941 0.479072 1.1303
-0.193998 0.478965 1.1303
-0.193894 0.473828 1.1303
-0.194104 0.484112 1.1303
-0.189162 0.484007 1.1303
-0.189059 0.478862 1.1303
-0.189266 0.489162 1.1303
-0.184324 0.489058 1.1303
-0.184223 0.483905 1.1303
-0.184428 0.494221 1.1303
-0.179486 0.494118 1.1303
-0.179386 0.488957 1.1303
-0.174451 0.488859 1.1303
-0.179287 0.483805 1.1303
-0.174355 0.483709 1.1303
-0.174548 0.494019 1.1303
-0.169613 0.493922 1.1303
-0.169519 0.488764 1.1303
-0.16459 0.488672 1.1303
-0.169426 0.483616 1.1303
-0.1645 0.483525 1.1303
-0.164681 0.493829 1.1303
-0.160181 0.495062 1.13333
-0.160092 0.489893 1.13333
-0.155156 0.489807 1.13333
-0.159577 0.483437 1.1303
-0.155072 0.484648 1.13333
-0.155241 0.494975 1.13333
-0.150305 0.49489 1.13333
-0.150222 0.489723 1.13333
-0.14568 0.490952 1.13636
-0.150141 0.484566 1.13333
